# .PCD v0.7 - Point Cloud Data file format
VERSION 0.7
FIELDS x y z rgba
SIZE 4 4 4 4
TYPE F F F U
COUNT 1 1 1 1
WIDTH 989
HEIGHT 1
VIEWPOINT 0 0 0 1 0 0 0
POINTS 989
DATA ascii
-0.28032833 0.035038378 -0.031213757 4289435267
-0.28113157 0.036943041 -0.032750603 4287266923
-0.28168884 0.038765538 -0.033834457 4287925103
-0.2957561 -0.018679546 -0.060978685 4289099352
-0.29491901 -0.017055351 -0.059491511 4289294937
-0.29379672 -0.015470078 -0.057476077 4289096018
-0.29125357 -0.014043292 -0.052830569 4288308048
-0.28905606 -0.012622484 -0.048823323 4287594860
-0.28691027 -0.011232805 -0.044910427 4289963660
-0.2824558 -0.010167922 -0.03672168 4290162837
-0.28122294 -0.0087489616 -0.034496043 4287402371
-0.28025955 -0.0073119365 -0.032768697 4291015577
-0.2795569 -0.0058510858 -0.031523876 4293455034
-0.27886027 -0.0044003241 -0.030289739 4291021504
-0.27841604 -0.0029179286 -0.029523009 4290164885
-0.27772915 -0.0014851751 -0.02830625 4289569940
-0.27729133 -1.6807255e-05 -0.027550796 4288979851
-0.27637264 0.0013511775 -0.02590359 4289375126
-0.27594233 0.0028039292 -0.025161399 4292461483
-0.27551442 0.0042508473 -0.024423523 4291743143
-0.27508894 0.0056920112 -0.023689847 4288455065
-0.27490219 0.007182003 -0.023398962 4288453502
-0.27471602 0.0086700991 -0.023109028 4288390024
-0.27453044 0.010156309 -0.0228201 4288455820
-0.27624574 0.012129614 -0.026059743 4287995525
-0.27629656 0.013691559 -0.026210206 4287074943
-0.27610749 0.015189708 -0.025915282 4286680436
-0.2756803 0.016618147 -0.025178008 4286484083
-0.27596992 0.01825021 -0.025772085 4286482549
-0.27578202 0.019744618 -0.025479188 4286350451
-0.27631152 0.02145985 -0.026519271 4286284913
-0.27636269 0.02303293 -0.026670817 4286613106
-0.27641395 0.024608245 -0.02682256 4287072883
-0.27670574 0.026266966 -0.027421588 4287729783
-0.2769984 0.027932478 -0.028022505 4289047172
-0.27729195 0.029604875 -0.028625265 4291549081
-0.27807373 0.031461719 -0.030136531 4292991397
-0.27861601 0.033244494 -0.031202706 4291077519
-0.27965724 0.035229068 -0.033197712 4288185965
-0.28045911 0.037140012 -0.034747984 4286808428
-0.28101522 0.038968321 -0.035841335 4288385140
-0.29593858 -0.02028151 -0.064749889 4289827185
-0.29569232 -0.018595872 -0.064353123 4288836951
-0.29484951 -0.016961932 -0.062841959 4289032535
-0.29342613 -0.015393965 -0.060245585 4289227602
-0.29030639 -0.014018166 -0.054478545 4288503116
-0.28783935 -0.01262534 -0.049929332 4287721045
-0.28624845 -0.011172174 -0.047016311 4288189307
-0.28153843 -0.010138082 -0.038270768 4291541664
-0.28056407 -0.008682901 -0.036507618 4291013534
-0.27960086 -0.0072420556 -0.034764692 4289173638
-0.27889821 -0.005777251 -0.033508644 4290165142
-0.27844989 -0.0042826021 -0.032727998 4293710517
-0.27800414 -0.0027941742 -0.031951927 4291486107
-0.27756101 -0.0013118513 -0.031180453 4289899925
-0.276876 0.00011846967 -0.029956004 4289044619
-0.27619678 0.0015390496 -0.028741976 4289109896
-0.27576375 0.0029994459 -0.027988555 4290554774
-0.27557305 0.0045053763 -0.027688796 4293185978
-0.27562293 0.0060629551 -0.027839556 4293122499
-0.27543285 0.0075669526 -0.027540825 4290430632
-0.2750046 0.0090114241 -0.026795719 4288522131
-0.27649748 0.010929963 -0.029651016 4287076742
-0.27630562 0.012440082 -0.029349171 4287402874
-0.27611434 0.013948257 -0.029048398 4287469177
-0.27640644 0.015588132 -0.029653898 4287271031
-0.27597404 0.017027445 -0.028900906 4286680696
-0.27578396 0.018531745 -0.028602201 4286679923
-0.27607501 0.020180102 -0.029206088 4286810480
-0.27660888 0.02191093 -0.030265933 4286876017
-0.2766597 0.023497246 -0.03041948 4287269747
-0.27646843 0.025005711 -0.030118736 4287926392
-0.2767615 0.026676601 -0.030727243 4288783235
-0.27681249 0.028269663 -0.030881453 4290825107
-0.27710661 0.029951913 -0.031492304 4292270502
-0.27764603 0.031730801 -0.032564256 4291015069
-0.27818859 0.03352192 -0.033642456 4288842612
-0.27948037 0.035612538 -0.03612908 4287136104
-0.28028518 0.037536044 -0.03770132 4287333740
-0.28058997 0.039273959 -0.03833418 4289764470
-0.29617971 -0.020187743 -0.068746001 4289365610
-0.29562756 -0.018511172 -0.067769885 4288575063
-0.29477897 -0.016867351 -0.066234231 4288836182
-0.29334646 -0.015290312 -0.063596554 4289030994
-0.28963938 -0.013964652 -0.056665946 4288699722
-0.28689736 -0.012598303 -0.051554285 4287912268
-0.28504148 -0.011174901 -0.048113488 4287460194
-0.28087541 -0.010075572 -0.040309969 4289636746
-0.27964693 -0.0086509446 -0.038050666 4292657836
-0.27893817 -0.0071717943 -0.036772188 4292130466
-0.27823555 -0.0057030162 -0.035504811 4288788107
-0.27778706 -0.0042042374 -0.034717083 4290027158
-0.27758861 -0.0026693656 -0.034401566 4292336299
-0.27714396 -0.0011810486 -0.033620689 4292531616
-0.27694735 0.00034752302 -0.03330848 4290162070
-0.27626228 0.0017772063 -0.032072656 4288979077
-0.27655604 0.0033984482 -0.03268737 4288848007
-0.27636132 0.0049207923 -0.032378424 4290880920
-0.27616721 0.006441121 -0.032070585 4291809204
-0.27573127 0.0079027256 -0.031305049 4292339400
-0.27529779 0.0093584126 -0.03054402 4292593314
-0.27631631 0.011173121 -0.032530852 4289568905
-0.27612281 0.012691472 -0.032224048 4287465082
-0.27617264 0.014273267 -0.032377914 4287200112
-0.27622253 0.015857304 -0.032531988 4286678895
-0.27651608 0.017513679 -0.033147577 4286680437
-0.27607962 0.018959999 -0.032380562 4287204725
-0.27612966 0.020548554 -0.032535084 4287401588
-0.27691108 0.022369608 -0.034075614 4287598709
-0.27671698 0.023890145 -0.033767801 4288125308
-0.27701196 0.025571352 -0.034387041 4289503881
-0.27706251 0.02717563 -0.034543086 4290756505
-0.2768684 0.028696271 -0.034235273 4291153309
-0.27691904 0.030302854 -0.034391541 4290489232
-0.27746013 0.032092821 -0.035478391 4288646525
-0.27800432 0.033895127 -0.036571562 4287529833
-0.27930129 0.036000337 -0.039093781 4287071083
-0.27985629 0.037836298 -0.040208541 4288384880
-0.29673177 -0.020072527 -0.073390536 4289428578
-0.29617178 -0.018380342 -0.072391383 4288706135
-0.29531175 -0.016721537 -0.070820376 4288705109
-0.29326561 -0.015185376 -0.066989191 4288703057
-0.29039615 -0.01376714 -0.06158787 4288437577
-0.2865026 -0.012510876 -0.054232925 4288107844
-0.28437182 -0.011113922 -0.050235365 4287584845
-0.28072444 -0.0099469544 -0.043345038 4287856235
-0.27923438 -0.008549693 -0.04056586 4290690971
-0.27827162 -0.0071011325 -0.038791355 4294301371
-0.27756906 -0.0056283646 -0.037512522 4292996523
-0.27712029 -0.0041254237 -0.036717579 4292065171
-0.27692145 -0.0025861983 -0.036399137 4290547869
-0.27672318 -0.0010491044 -0.036081776 4290363800
-0.27652553 0.00048587003 -0.035765536 4290427553
-0.27632853 0.0020187369 -0.035450418 4290031759
-0.27613214 0.0035495167 -0.035136394 4289111432
-0.27593637 0.0050781872 -0.034823447 4289568391
-0.27574125 0.0066048168 -0.034511641 4289702541
-0.2755467 0.008129362 -0.034200884 4291013783
-0.27657434 0.009950377 -0.036225639 4291210132
-0.27662373 0.011543396 -0.03638133 4289375643
-0.27642733 0.013074153 -0.0360673 4288125582
-0.27647677 0.014669443 -0.03622321 4287727224
-0.27677223 0.016335988 -0.036849737 4286939759
-0.27682191 0.017938014 -0.037006307 4287007606
-0.27687159 0.019542335 -0.037163116 4287664509
-0.27692142 0.021148903 -0.037320126 4288321663
-0.27721819 0.022836028 -0.037949953 4289439367
-0.27751589 0.02453021 -0.038581807 4290230932
-0.27756605 0.026148161 -0.038739931 4290296478
-0.27712125 0.027597999 -0.037950445 4289966488
-0.27692491 0.029128868 -0.037636407 4289176198
-0.27697504 0.030746877 -0.037794556 4288120948
-0.27876663 0.033014547 -0.041289326 4287333227
-0.27906907 0.034749147 -0.04193173 4287071085
-0.27962562 0.036589809 -0.043061528 4287726956
-0.28018549 0.038443342 -0.044197988 4289895285
-0.29698309 -0.019975455 -0.077525884 4289361502
-0.2967262 -0.018247012 -0.077101223 4288640087
-0.29585445 -0.016572956 -0.075493768 4288639316
-0.29529563 -0.014884208 -0.074487709 4288178255
-0.29383495 -0.013295335 -0.071745984 4288109898
-0.28665903 -0.0123615 -0.058003761 4287976513
-0.28396776 -0.011020431 -0.052889217 4287582274
-0.2821458 -0.0096149184 -0.049446538 4287322701
-0.2788181 -0.0084475614 -0.043102942 4288250735
-0.27785274 -0.0069932411 -0.041307051 4291346848
-0.2768985 -0.0055532809 -0.039531797 4294633666
-0.27644962 -0.004046164 -0.038729668 4293979315
-0.2762503 -0.0025025664 -0.038408175 4292784830
-0.27629864 -0.00091604207 -0.038563993 4289703558
-0.27634704 0.00067270838 -0.038720019 4288516226
-0.27614835 0.002214116 -0.038399637 4288517759
-0.27619684 0.0038050702 -0.038555879 4288322435
-0.2759988 0.0053443275 -0.038236693 4288519296
-0.27604735 0.0069375006 -0.038393147 4288782210
-0.27584991 0.0084746415 -0.038075045 4289568388
-0.27663901 0.010252194 -0.039660759 4289700745
-0.27668789 0.01185663 -0.039818324 4289572242
-0.27648917 0.013397912 -0.039497945 4289505424
-0.27629113 0.014937103 -0.039178748 4289372555
-0.2763401 0.016543787 -0.039336529 4289044619
-0.27638915 0.018152764 -0.039494533 4289834132
-0.27619171 0.019689854 -0.039176434 4290952599
-0.27698272 0.021531025 -0.040768392 4291477910
-0.2772809 0.0232308 -0.04140839 4291609498
-0.27833292 0.025184881 -0.043506015 4290821530
-0.28146112 0.027860258 -0.049618967 4289112211
-0.28099126 0.029347273 -0.048775826 4287860867
-0.28078276 0.03092006 -0.048437852 4287530611
-0.28057492 0.032490652 -0.048101064 4287334768
-0.28011057 0.033962801 -0.04726785 4287203440
-0.28016123 0.035625312 -0.047431123 4287530349
-0.27944446 0.03698878 -0.046108883 4288973935
-0.29723817 -0.019876795 -0.081727743 4289164122
-0.29697791 -0.018134553 -0.081293792 4288574037
-0.29609713 -0.01644757 -0.079654284 4288442450
-0.29491845 -0.014802652 -0.077435382 4287849551
-0.29375464 -0.013176068 -0.07524465 4287650633
-0.29024735 -0.011829169 -0.068498269 4287648576
-0.28410295 -0.010860903 -0.056622736 4287450686
-0.28226534 -0.0094465194 -0.053116765 4287253822
-0.27839801 -0.0083445413 -0.045662276 4287255882
-0.2771779 -0.0069215568 -0.043354046 4288118120
-0.27622393 -0.0054777968 -0.041562788 4291208852
-0.27552751 -0.0040073982 -0.040272012 4292665773
-0.27532843 -0.0024615147 -0.039948694 4294564539
-0.27537602 -0.00087261084 -0.040105484 4291281560
-0.27567053 0.00076610263 -0.040743038 4288911233
-0.27571833 0.0023617365 -0.040900484 4287728247
-0.27576619 0.0039595962 -0.041058149 4287005300
-0.27581415 0.0055597192 -0.041216038 4286939504
-0.27610999 0.0072189039 -0.041857034 4287334001
-0.27665603 0.0089445719 -0.042985894 4287662966
-0.27620634 0.010434984 -0.042174369 4288124542
-0.27625462 0.012046408 -0.042333383 4288717962
-0.27605486 0.013594139 -0.042008813 4289311639
-0.27585575 0.015139705 -0.041685481 4289904549
-0.27590412 0.016753383 -0.041844696 4290234549
-0.27570564 0.018296847 -0.041522447 4290499516
-0.27600101 0.019987568 -0.042163827 4291220401
-0.27729532 0.0219968 -0.044755168 4291478689
-0.27886334 0.024119241 -0.04788189 4290753432
-0.27994049 0.026109811 -0.050051425 4289307021
-0.28076917 0.028037293 -0.051736522 4288123265
-0.28055882 0.029618867 -0.051392827 4287400826
-0.28034917 0.031198243 -0.051050376 4287335799
-0.28014019 0.032775398 -0.050709121 4287532662
-0.27993187 0.03435035 -0.050369106 4287662193
-0.279982 0.036022626 -0.050534111 4288579437
-0.27951732 0.037493709 -0.049692728 4290353525
-0.29781425 -0.019755563 -0.086619511 4289098583
-0.29754961 -0.01799646 -0.086174272 4288639316
-0.29697078 -0.01626719 -0.085112497 4288179281
-0.29577234 -0.014604866 -0.082834497 4287717966
-0.2936731 -0.013055254 -0.078787819 4287257927
-0.29161996 -0.011537266 -0.074830152 4287189823
-0.28874242 -0.010154868 -0.069252349 4287188796
-0.28651357 -0.0087391855 -0.064946286 4287121979
-0.27771851 -0.0082761757 -0.047742125 4287055933
-0.27624774 -0.0068867048 -0.044919506 4286926661
-0.2752969 -0.0054409537 -0.043117475 4287850330
-0.27460265 -0.0039684968 -0.041818991 4289631355
-0.27415875 -0.0024634071 -0.041012086 4291539856
-0.2744506 -0.00082906365 -0.041651469 4291019426
-0.27474344 0.00081217219 -0.042292953 4290229651
-0.2747905 0.0024102004 -0.042451382 4288847750
-0.27508429 0.0040628808 -0.043095347 4287466106
-0.27537903 0.0057225479 -0.043741379 4286872942
-0.27542642 0.0073318915 -0.043900933 4286478184
-0.27572221 0.0090031307 -0.044549495 4286215787
-0.2755214 0.010557406 -0.044220723 4286414193
-0.27581745 0.012237831 -0.044870183 4286941309
-0.27561665 0.013792017 -0.044541411 4287732107
-0.27541646 0.015344069 -0.044213805 4288390557
-0.27521694 0.016893946 -0.04388734 4288851121
-0.27501801 0.018441731 -0.043562021 4288919227
-0.27531245 0.020137593 -0.044208925 4289509040
-0.2758559 0.021918574 -0.045347102 4290621598
-0.27740839 0.02403741 -0.048475213 4290554003
-0.27873102 0.026110049 -0.05115125 4289832335
-0.27955353 0.028037636 -0.052841969 4288848007
-0.27960277 0.029710265 -0.053007804 4287993729
-0.27965209 0.031385254 -0.053173862 4287467641
-0.27970147 0.033062633 -0.053340156 4287530864
-0.27949205 0.034644194 -0.052995626 4288317036
-0.27954152 0.036323894 -0.053162154 4289761906
-0.29776028 -0.0196747 -0.090337723 4289098584
-0.2974931 -0.017904127 -0.089884385 4288573268
-0.29690978 -0.016163791 -0.088804498 4287916369
-0.29507992 -0.01454993 -0.085253872 4287521356
-0.29328507 -0.012964462 -0.081771351 4287060805
-0.29122561 -0.011440165 -0.077762894 4286665534
-0.28862941 -0.010017485 -0.072688617 4286860603
-0.28638741 -0.0085946703 -0.068314761 4287055418
-0.27780303 -0.0080998344 -0.05135804 4287056190
-0.27606761 -0.0067393985 -0.04798346 4286792507
-0.27461448 -0.0053647924 -0.04516783 4286793791
-0.27367496 -0.0039294818 -0.043370511 4287320651
-0.27323219 -0.0024222652 -0.042558774 4287786846
-0.27327824 -0.00083085801 -0.042717297 4288711804
-0.27356857 0.00081049703 -0.043361057 4289109378
-0.27385974 0.0024587854 -0.044006865 4288782727
-0.27390611 0.0040614707 -0.044166505 4288059779
-0.27419835 0.0057212352 -0.044814825 4287729785
-0.27498674 0.0075031756 -0.046449624 4287269749
-0.27503356 0.009121852 -0.046610869 4287138424
-0.27483234 0.010680541 -0.046278976 4287662714
-0.27512744 0.012366053 -0.046934016 4288318843
-0.27492619 0.013924668 -0.046602122 4289173122
-0.27472562 0.015481084 -0.046271399 4289832083
-0.27477261 0.01710655 -0.046433315 4289702318
-0.27457267 0.018660782 -0.046103757 4289966270
-0.27437335 0.020212874 -0.045775373 4291083193
-0.27466691 0.021918546 -0.046428271 4292858032
-0.27520931 0.023712164 -0.047577083 4293055144
-0.27600509 0.025602249 -0.049231041 4291543454
-0.27680781 0.02751107 -0.050899543 4289440142
-0.27890214 0.029893346 -0.055142593 4287795323
-0.27920997 0.031667523 -0.055826649 4287399534
-0.27951878 0.033449322 -0.056512963 4288186218
-0.27930751 0.035039682 -0.056162562 4289236847
-0.29829916 -0.021359608 -0.095214382 4290021481
-0.29770538 -0.019592773 -0.094104908 4289229400
-0.29743564 -0.017810611 -0.09364333 4288506963
-0.29652974 -0.016086265 -0.091908514 4287784783
-0.29438278 -0.014494667 -0.087688997 4287193162
-0.29198068 -0.01296768 -0.082957044 4286928708
-0.29023132 -0.011409627 -0.079530269 4286533950
-0.28764412 -0.0099850297 -0.074424148 4286728506
-0.28540987 -0.008560298 -0.070023045 4286989112
-0.2821359 -0.0073220548 -0.063537084 4287122494
-0.27538016 -0.0066662491 -0.050071135 4286793536
-0.27368081 -0.005327628 -0.046734713 4286991168
-0.27274442 -0.0038903812 -0.04492664 4286924858
-0.2723029 -0.0023809762 -0.04411009 4286794303
-0.27234817 -0.00078718213 -0.044269603 4287058762
-0.27263674 0.00085670658 -0.044917241 4287128663
-0.27292621 0.0025075227 -0.04556695 4287068262
-0.27297181 0.0041126027 -0.045727573 4287005295
-0.27375403 0.0058854679 -0.04736685 4287268977
-0.27404696 0.0075598219 -0.048024498 4287532917
-0.274093 0.0091809519 -0.048186757 4288190846
-0.27389202 0.010741904 -0.047852885 4289306246
-0.27393815 0.01236526 -0.048015352 4290489484
-0.27373779 0.013923996 -0.047682688 4291871126
-0.27329284 0.015411657 -0.046858404 4292730540
-0.27333897 0.017034924 -0.047020853 4292473039
-0.27314052 0.018587166 -0.046691708 4292080867
-0.27294269 0.020137291 -0.046363741 4292471767
-0.27323297 0.021840556 -0.04701731 4292665279
-0.27401587 0.023712259 -0.048662301 4291676840
-0.27480567 0.025602469 -0.050321728 4289701774
-0.27661228 0.027861686 -0.054028265 4288253562
-0.27845609 0.030169724 -0.057811208 4287661166
-0.27902424 0.032047555 -0.059027474 4287924331
-0.27959585 0.033938888 -0.060251128 4288907885
-0.27964422 0.035641264 -0.060421497 4290089584
-0.29824802 -0.021288158 -0.099050738 4289954147
-0.29732656 -0.019531587 -0.097269475 4289294679
-0.29673415 -0.017765237 -0.096152574 4288637265
-0.29582781 -0.016035331 -0.094400607 4288046157
-0.29337111 -0.014468574 -0.089513719 4287257927
-0.29097712 -0.012939374 -0.084751718 4286797122
-0.28923362 -0.011378994 -0.081303366 4286598974
-0.28579617 -0.010058439 -0.074426845 4286793274
-0.28331271 -0.0086738868 -0.069477908 4286923573
-0.2803584 -0.0074010296 -0.063574068 4286991162
-0.27519304 -0.0065163379 -0.053192358 4286926917
-0.27323729 -0.0052111684 -0.049304537 4287191621
-0.27205449 -0.0038097571 -0.046980347 4287124286
-0.27137071 -0.0023395959 -0.045665979 4286990141
-0.27141526 -0.00074340758 -0.045826469 4287120184
-0.27145985 0.00085502909 -0.045987185 4286923837
-0.27174681 0.0025059723 -0.046639197 4286467649
-0.27203465 0.0041639097 -0.047293302 4286142282
-0.2725679 0.0058841817 -0.048445251 4286275151
-0.27261299 0.0075008199 -0.048607804 4286408279
-0.2729035 0.0091799013 -0.049268249 4286672479
-0.27270338 0.01074096 -0.048933607 4287265131
-0.27250388 0.012299854 -0.048600167 4287859064
-0.27254918 0.013923327 -0.048763413 4288781446
-0.27235034 0.015479992 -0.048431125 4289573015
-0.27166703 0.016892705 -0.047115162 4289641898
-0.27122983 0.018368164 -0.046298426 4289183403
-0.27127498 0.019986911 -0.046461195 4289179034
-0.27156118 0.021685239 -0.04711378 4289040514
-0.27209076 0.02347078 -0.048261199 4288512115
-0.27311331 0.025435286 -0.050411113 4287987562
-0.27439666 0.027511759 -0.053092126 4287660648
-0.2762062 0.029802896 -0.056844253 4287923562
-0.2783134 0.032239564 -0.061203294 4288645229
-0.2788837 0.034137201 -0.062437832 4289628270
-0.27919403 0.0359465 -0.063143961 4290681203
-0.29852429 -0.021196516 -0.10360836 4290019426
-0.29759285 -0.01942567 -0.1017904 4289360730
-0.29731777 -0.017619792 -0.10131162 4288833105
-0.29639861 -0.015873333 -0.099517576 4288175947
-0.29328501 -0.014353192 -0.093241736 4287453508
-0.29087591 -0.012815514 -0.088402174 4286665278
-0.28941953 -0.011212039 -0.085506983 4286270525
-0.28740007 -0.0097042304 -0.081460111 4286726968
-0.28542474 -0.0082268827 -0.077501714 4286791989
-0.28210369 -0.006977478 -0.070790872 4286661430
-0.27551341 -0.0062870164 -0.057392959 4286860350
-0.27303779 -0.0050535593 -0.052404139 4287125568
-0.27160427 -0.0036869352 -0.049544785 4287059782
-0.27043572 -0.002298078 -0.047226463 4287190083
-0.270239 -0.00074517797 -0.046895832 4287516476
-0.27028278 0.00085337518 -0.047057319 4287252286
-0.27056724 0.0025044375 -0.047711607 4287055929
-0.27061117 0.0041097654 -0.047873784 4286858296
-0.27113876 0.0058275461 -0.049026538 4286791993
-0.27118295 0.0074420152 -0.04918962 4286531134
-0.27122724 0.00905874 -0.049352948 4286466883
-0.27102923 0.010615652 -0.049019922 4286468168
-0.27083188 0.012170388 -0.048688054 4286403916
-0.27063516 0.013722977 -0.048357394 4286798414
-0.27019927 0.01520511 -0.047536235 4287388496
-0.26976597 0.016681109 -0.046720009 4287781715
-0.26909864 0.018079173 -0.045423437 4287717462
-0.26914272 0.019688893 -0.045586046 4287460702
-0.26942348 0.021377316 -0.046234529 4287267687
-0.27018186 0.023231359 -0.047863714 4287332712
-0.27167335 0.025352171 -0.050998896 4287660392
-0.2731908 0.027512129 -0.054188684 4287989098
-0.27524024 0.029894823 -0.0584726 4288513642
-0.27759814 0.032432713 -0.063392177 4289232999
-0.27842945 0.034436505 -0.065176748 4290153068
-0.29847348 -0.021122938 -0.10755975 4289953119
-0.29753506 -0.019340424 -0.10571062 4289361244
-0.29725736 -0.017522492 -0.10522301 4288834899
-0.29504588 -0.015876928 -0.10074718 4287913800
-0.29257348 -0.01429665 -0.095731325 4287387715
-0.28986216 -0.012786709 -0.090220466 4286533438
-0.28811362 -0.011215116 -0.086694077 4286269498
-0.28639826 -0.0096708136 -0.083234675 4286791478
-0.28442988 -0.0081913909 -0.079251535 4286923061
-0.28222579 -0.0067816102 -0.074780121 4286660660
-0.27481157 -0.0062112296 -0.059545968 4286726968
-0.27283579 -0.0048941239 -0.0555401 4286991932
-0.27139485 -0.0035208538 -0.052637722 4287123013
-0.26949787 -0.0022564591 -0.048791602 4287256898
-0.26930138 -0.00070128375 -0.048459008 4287385922
-0.26934439 0.0008996785 -0.048621483 4287257416
-0.26938745 0.0025028891 -0.048784193 4287452485
-0.26943058 0.0041083628 -0.048947141 4287582013
-0.26995397 0.0058262586 -0.050103731 4287513655
-0.26999733 0.0074408296 -0.050267588 4287250485
-0.26980022 0.0089979144 -0.049933784 4287185204
-0.2696037 0.010552808 -0.049601175 4287120182
-0.26916921 0.012041665 -0.048775636 4287055162
-0.26897457 0.013590144 -0.048446529 4286990907
-0.2680724 0.014933337 -0.046651695 4287122493
-0.26788083 0.016471324 -0.046328373 4287254850
-0.26745632 0.017935742 -0.045522273 4287391055
-0.26749945 0.019541051 -0.045685194 4287397216
-0.26801056 0.021300858 -0.046818525 4287399016
-0.26899803 0.023231452 -0.048940189 4287595365
-0.27072039 0.025435749 -0.052587092 4287857253
-0.27272534 0.027774801 -0.05682189 4288119142
-0.27477747 0.030171206 -0.061156407 4288642659
-0.27792469 0.033017822 -0.067765772 4289561191
-0.29842174 -0.02104833 -0.11156496 4289624156
-0.29747635 -0.019254029 -0.10968398 4289035103
-0.29719591 -0.017423855 -0.10918722 4288574810
-0.29464874 -0.015796555 -0.10396819 4287782477
-0.29185706 -0.014239737 -0.098237373 4287058752
-0.28884494 -0.012757835 -0.092044726 4286663738
-0.28769511 -0.011114906 -0.089731596 4286727220
-0.28597465 -0.0095640803 -0.086227722 4286857267
-0.28400078 -0.0080787651 -0.082193874 4286922545
-0.28179091 -0.0066636982 -0.077666067 4287055669
-0.27855465 -0.0054477761 -0.070994876 4287389509
-0.27238086 -0.0047738575 -0.05819064 4287386181
-0.27093679 -0.0033955493 -0.055253252 4287320135
-0.26903605 -0.0021269894 -0.051361267 4287123268
-0.26859939 -0.00061127136 -0.050524868 4287254342
-0.26840314 0.00094612734 -0.050190307 4287324232
-0.26820752 0.0025013345 -0.049856946 4287321929
-0.26848781 0.0041596377 -0.050517965 4287714370
-0.26853022 0.0057697841 -0.050682131 4287843898
-0.26857272 0.0073821931 -0.050846517 4287710262
-0.2683771 0.0089372294 -0.05051313 4287578421
-0.2679452 0.010428549 -0.049685553 4287579190
-0.2677514 0.011977186 -0.049355682 4287448889
-0.26732326 0.013458035 -0.048535366 4287318589
-0.26689756 0.014932805 -0.047719914 4287319876
-0.26647434 0.016401507 -0.046909273 4287522898
-0.26605359 0.017864183 -0.04610344 4287528034
-0.26632708 0.019540904 -0.046751209 4287464040
-0.26660141 0.021224592 -0.047401022 4287464038
-0.26805001 0.023311162 -0.050511274 4287594596
-0.27024826 0.025687441 -0.055193778 4287790947
-0.27151385 0.027775157 -0.057923578 4288117599
-0.27380332 0.030264225 -0.062801056 4288839007
-0.30001116 -0.022760689 -0.11898759 4290218601
-0.29904202 -0.020932425 -0.11704014 4289362271
-0.2980828 -0.019120252 -0.11511285 4289035875
-0.29779747 -0.017271481 -0.11460268 4288707167
-0.29817975 -0.015367436 -0.11549725 4287847760
-0.29789439 -0.013519847 -0.11498696 4287254587
-0.29628992 -0.011817951 -0.11169915 4286729016
-0.2953594 -0.010066148 -0.10982917 4286792245
-0.2941173 -0.0083700009 -0.1073022 4286987826
-0.29163522 -0.0068650497 -0.10216163 4286858036
-0.28800908 -0.0055730687 -0.094608054 4287125050
-0.28510049 -0.0042375159 -0.088563584 4287126596
-0.27217251 -0.0046111322 -0.061393417 4287253054
-0.27022874 -0.003312066 -0.057373658 4287123265
-0.26857007 -0.0019964275 -0.053953309 4286926922
-0.26789317 -0.00052076939 -0.052602753 4287257159
-0.26745901 0.00099272921 -0.05176381 4287058243
-0.26773813 0.0026514656 -0.05242997 4287385666
-0.26754215 0.0042110728 -0.052093446 4287450690
-0.26758379 0.0058236434 -0.052258629 4287450687
-0.2673884 0.0073810145 -0.051923282 4287448119
-0.26695782 0.0088767605 -0.051091015 4287578164
-0.26652974 0.010366245 -0.050263692 4287578677
-0.26610419 0.011849535 -0.049441349 4287514425
-0.26591304 0.013391949 -0.049114231 4287385412
-0.26549116 0.014864938 -0.048299063 4287523414
-0.26507166 0.016331891 -0.047488715 4287594339
-0.26488352 0.017863918 -0.04716735 4287464039
-0.26515454 0.019540736 -0.047817398 4287332711
-0.2656574 0.021300787 -0.048958279 4287464038
-0.26733482 0.023471167 -0.052585885 4287725668
-0.27248758 0.026890494 -0.063572682 4287985245
-0.27507797 0.02949151 -0.069138505 4288508762
-0.27721563 0.031977702 -0.073747933 4289430883
-0.29928532 -0.022730583 -0.12170834 4290020709
-0.29865366 -0.020875661 -0.12045936 4289427034
-0.29836339 -0.019007312 -0.11993541 4289229141
-0.29807419 -0.017142763 -0.11941353 4288769360
-0.29879755 -0.015191815 -0.1210442 4288042563
-0.29850721 -0.013325362 -0.12052006 4287450424
-0.29754677 -0.011535375 -0.11857031 4286728503
-0.2965962 -0.0097610094 -0.11664072 4286726711
-0.29532805 -0.0080438545 -0.11403455 4286923063
-0.29311445 -0.0064793117 -0.10941487 4286992705
-0.28788292 -0.0053994311 -0.098368183 4286988861
-0.28495681 -0.0040579732 -0.092225879 4287390793
-0.27120787 -0.0045718248 -0.063029297 4287389247
-0.26976183 -0.003184922 -0.060029473 4287387968
-0.26785928 -0.0019093992 -0.056055579 4287388229
-0.26718268 -0.00042974291 -0.054692768 4287325522
-0.26674849 0.0010879628 -0.053846192 4287060302
-0.26702657 0.0027517427 -0.05451807 4287383095
-0.26659358 0.0042626462 -0.053673614 4287512884
-0.26663446 0.0058776778 -0.053839799 4287512373
-0.26620391 0.0073798294 -0.053000201 4287446324
-0.26577589 0.0088757081 -0.052165639 4287446837
-0.26535034 0.010365319 -0.051336031 4287447352
-0.26469636 0.011785609 -0.050018318 4287384384
-0.26427701 0.013260994 -0.049201135 4287457106
-0.26408851 0.01479727 -0.048876751 4287396705
-0.26390061 0.016331483 -0.048553534 4287332454
-0.26371327 0.017863631 -0.048231434 4287397989
-0.2644397 0.019688241 -0.049862485 4287398245
-0.26587018 0.021762589 -0.05299953 4287463523
-0.26973692 0.024700249 -0.061348103 4287788637
-0.27276826 0.027421495 -0.067913555 4288112725
-0.27617282 0.030339144 -0.075280525 4288771678
-0.29923823 -0.022665359 -0.12591612 4289822817
-0.29894286 -0.020776931 -0.12537785 4289360727
-0.29864863 -0.018892441 -0.12484176 4289163088
-0.29835546 -0.017011784 -0.12430777 4288833351
-0.29977217 -0.014981681 -0.12744637 4287975487
-0.29913259 -0.013126826 -0.12616861 4287449401
-0.29815799 -0.011319167 -0.12417033 4286989878
-0.29719347 -0.0095275035 -0.12219287 4286791988
-0.29590729 -0.0077941893 -0.11952302 4286728506
-0.29237857 -0.0063942941 -0.11202963 4287128398
-0.28684822 -0.005357699 -0.1002275 4287192136
-0.2839331 -0.0040146206 -0.094046503 4287060544
-0.27073973 -0.0044486942 -0.06574513 4287319367
-0.2692906 -0.0030566521 -0.062708884 4287191877
-0.26738441 -0.0017769331 -0.058687285 4287257678
-0.26670608 -0.00029130059 -0.057307936 4287325777
-0.26698524 0.001380383 -0.057990201 4287652172
-0.26654834 0.0029040251 -0.057130188 4287578934
-0.26611397 0.0044211629 -0.05627536 4287446322
-0.2659179 0.0059874849 -0.055933658 4287446579
-0.26548731 0.0074937795 -0.055086397 4287512114
-0.26482621 0.0089341113 -0.053741612 4287447349
-0.26440194 0.010425813 -0.052907135 4287383356
-0.26375023 0.011847955 -0.051581632 4287390286
-0.26356077 0.013390641 -0.051253006 4287461983
-0.26314387 0.014863874 -0.050433345 4287398246
-0.26318371 0.01646968 -0.050599325 4287267430
-0.26322356 0.01807774 -0.050765555 4287398245
-0.26418039 0.019985965 -0.052912287 4287529060
-0.26561597 0.022074874 -0.056094289 4287657564
-0.26876453 0.024784207 -0.062979147 4287915344
-0.27203494 0.027600765 -0.070130616 4288309329
-0.27543446 0.030530941 -0.077564508 4288970080
-0.29919028 -0.022599222 -0.13018309 4289624669
-0.29889193 -0.020697583 -0.12963448 4289163094
-0.29963002 -0.018726552 -0.1313338 4288900434
-0.29967692 -0.016795091 -0.13153434 4288636747
-0.29972389 -0.014860932 -0.13173518 4287909438
-0.29942438 -0.012958801 -0.1311841 4287449144
-0.29878175 -0.011098427 -0.1298878 4287054390
-0.29746342 -0.0093297334 -0.12712359 4286857525
-0.29616332 -0.007582745 -0.12439765 4286860089
-0.29195699 -0.0062642419 -0.11535622 4286993219
-0.28551087 -0.0053604413 -0.10144322 4287259466
-0.27977023 -0.0044694426 -0.089057185 4287192643
-0.27026719 -0.00432448 -0.068485424 4287516229
-0.26906195 -0.0028831535 -0.065949239 4287258184
-0.26690519 -0.0016433045 -0.061342206 4287190093
-0.26646438 -0.00010422785 -0.06046648 4287324238
-0.26674396 0.0015776076 -0.061158132 4287453516
-0.26630434 0.0031096581 -0.060284704 4287513398
-0.26563007 0.0045810463 -0.058899902 4287512370
-0.26543295 0.0061540431 -0.058553655 4287512626
-0.26500109 0.00766649 -0.05769597 4287578163
-0.26457179 0.0091725364 -0.056843482 4287513911
-0.26391289 0.010610121 -0.055490229 4287519302
-0.26348984 0.012101575 -0.054650567 4287526490
-0.26329887 0.013652778 -0.054316498 4287463781
-0.26333815 0.015270143 -0.054484446 4287397991
-0.26314774 0.016819205 -0.054151531 4287332454
-0.26341686 0.01851175 -0.054821044 4287397987
-0.2646153 0.020515271 -0.057518978 4287592028
-0.26702425 0.02295243 -0.062860601 4287783760
-0.26975238 0.025550101 -0.068901636 4288109897
-0.27257082 0.028236119 -0.075142749 4288638547
-0.27548411 0.031014996 -0.081594042 4289496676
-0.29879415 -0.022550112 -0.13374966 4289558106
-0.29884011 -0.020617085 -0.13395129 4289031251
-0.29888609 -0.018681377 -0.1341532 4288637777
-0.29893216 -0.016742963 -0.13435538 4288307274
-0.2989783 -0.014801841 -0.13455786 4287843387
-0.29902449 -0.012858044 -0.1347606 4287317302
-0.29837888 -0.010988086 -0.13344584 4286988340
-0.29705551 -0.0092107896 -0.13064331 4286791732
-0.295082 -0.0075425552 -0.12641267 4286859831
-0.29121059 -0.0061778086 -0.11801358 4287055419
-0.28417337 -0.0053631831 -0.10265909 4287188544
-0.2793121 -0.0043377951 -0.092076577 4287258435
-0.27338439 -0.0035882883 -0.079146229 4287519306
-0.26858228 -0.002752197 -0.068683244 4287587664
-0.26666313 -0.0014626516 -0.064551666 4287714634
-0.26694459 0.00022983982 -0.065255977 4287912517
-0.26649964 0.0017771455 -0.064363413 4287581505
-0.26581767 0.0032650626 -0.062949143 4287447860
-0.26537937 0.0047968584 -0.062070228 4287512882
-0.26518062 0.006378823 -0.06171817 4287512882
-0.26474616 0.0078995144 -0.060847104 4287578677
-0.26431426 0.0094137145 -0.059981342 4287581760
-0.2638849 0.010921493 -0.059120789 4287524437
-0.26345807 0.012422863 -0.058265463 4287529058
-0.26326492 0.013984888 -0.057924587 4287529318
-0.26330367 0.015613974 -0.058094498 4287463526
-0.26357439 0.017317187 -0.058775973 4287397731
-0.26384598 0.019027621 -0.059459649 4287395420
-0.26505882 0.02105533 -0.062219337 4287456337
-0.26725504 0.023443053 -0.067149468 4287780935
-0.27001053 0.02607215 -0.073315844 4288307274
-0.27259898 0.028698266 -0.079116628 4289033562
-0.29804641 -0.022518592 -0.13658585 4289426776
-0.2980915 -0.020578582 -0.13678911 4288899408
-0.29813668 -0.01863588 -0.13699266 4288309072
-0.29818192 -0.016690467 -0.13719648 4287977799
-0.29822722 -0.014742334 -0.13740061 4287712057
-0.29792622 -0.012826691 -0.13683747 4287250996
-0.29693955 -0.010991647 -0.13475421 4286923060
-0.29528829 -0.0092550544 -0.13119645 4286858294
-0.29267868 -0.0076753804 -0.12551184 4287056183
-0.2839779 -0.0070065246 -0.10631279 4287121210
-0.27994055 -0.0058038314 -0.097451687 4287054399
-0.27690178 -0.0045189117 -0.090802573 4287191359
-0.27186477 -0.0036350905 -0.079714514 4287453258
-0.26785046 -0.0026649619 -0.070891947 4287717199
-0.26641807 -0.001279857 -0.067799248 4287847241
-0.26669997 0.00042304429 -0.068513319 4288242245
-0.2660102 0.0019279134 -0.067068771 4287977537
-0.26556653 0.0034749303 -0.066170558 4287644726
-0.26512551 0.0050152177 -0.065277874 4287512628
-0.26468712 0.0065488005 -0.064390637 4287513140
-0.26448804 0.0081352554 -0.064035177 4287579705
-0.26405355 0.0096577005 -0.063155897 4287717966
-0.26362163 0.011173634 -0.062281929 4287527777
-0.26342568 0.012748837 -0.061932843 4287464039
-0.26346382 0.014389874 -0.062104784 4287528807
-0.26350203 0.016033266 -0.062276967 4287528806
-0.26400951 0.017825287 -0.063494518 4287526750
-0.26475707 0.019706432 -0.065247551 4287456336
-0.26551124 0.021606456 -0.067016236 4287452486
-0.26748979 0.023942376 -0.071514785 4287912261
-0.27027315 0.02660365 -0.077810019 4288506192
-0.27447176 0.029836174 -0.087264389 4289364067
-0.29690322 -0.024445862 -0.1384646 4289693798
-0.2966027 -0.022523031 -0.13789809 4289229911
-0.29630333 -0.020604303 -0.13733384 4288701519
-0.29634741 -0.01866488 -0.13753796 4288111440
-0.2967352 -0.016694479 -0.13851151 4287781703
-0.29677948 -0.014746222 -0.13871655 4287581497
-0.29613748 -0.012865433 -0.13738489 4287185459
-0.29482305 -0.011071189 -0.13454652 4286923575
-0.29319483 -0.0093398066 -0.13100381 4286991421
-0.2899788 -0.0078493115 -0.12390112 4287186742
-0.28087452 -0.0072595947 -0.10359648 4286991420
-0.27722135 -0.0060202186 -0.095503718 4287060045
-0.27452144 -0.0046977564 -0.089544706 4287388997
-0.27086475 -0.0035929126 -0.081436783 4287386438
-0.26711407 -0.0025771898 -0.073114015 4287582530
-0.26690546 -0.00095321407 -0.07273639 4287518019
-0.26645222 0.00061854947 -0.071809575 4287913030
-0.2657586 0.0021315885 -0.070342645 4288043844
-0.26531219 0.0036872746 -0.069430262 4287775799
-0.26462883 0.0051802988 -0.067985065 4287512630
-0.26442742 0.0067782099 -0.067622274 4287447607
-0.26398906 0.0083135674 -0.066726595 4287648321
-0.26378959 0.0099045523 -0.066367716 4287722586
-0.26359078 0.011493194 -0.066010147 4287595366
-0.2633926 0.013079531 -0.065653853 4287463271
-0.26343018 0.014732685 -0.065827839 4287462758
-0.26394024 0.016531784 -0.067065202 4287526755
-0.26421538 0.018269027 -0.067774355 4287521876
-0.26520973 0.02024678 -0.07010328 4287451971
-0.26645976 0.022331921 -0.073009096 4287583296
-0.26872602 0.024794629 -0.078205526 4288044873
-0.27054039 0.027144827 -0.082386322 4288705626
-0.27751958 0.031420488 -0.098209098 4289825900
-0.29683787 -0.024391387 -0.14289697 4289561697
-0.29618862 -0.022473106 -0.14153805 4289164374
-0.29588738 -0.020544104 -0.14096534 4288635469
-0.29558724 -0.018619241 -0.14039488 4288045131
-0.29460731 -0.016754955 -0.13828655 4287650628
-0.29431167 -0.014844907 -0.13772537 4287450682
-0.29334533 -0.013008079 -0.13564633 4287120696
-0.29205847 -0.011225153 -0.13284068 4286923834
-0.28981739 -0.0095838914 -0.12787335 4286794818
-0.28272557 -0.0086326012 -0.11191872 4286923056
-0.2781136 -0.0074672243 -0.10157342 4286926912
-0.27509034 -0.0061494894 -0.094822541 4287262810
-0.27243522 -0.0048310538 -0.088902764 4287456847
-0.26960465 -0.0035952192 -0.082582325 4287258445
-0.26662007 -0.002443484 -0.075909562 4287582521
-0.26665735 -0.00076434645 -0.07608708 4287449404
-0.26620132 0.00081640168 -0.075145505 4287579452
-0.26550382 0.0023377044 -0.073655702 4287644472
-0.26505467 0.0039021582 -0.07272885 4287578419
-0.26460826 0.0054596802 -0.071807712 4287513140
-0.26440457 0.0070691244 -0.071437411 4287383098
-0.26396212 0.0086150812 -0.070524633 4287652683
-0.26376039 0.010217465 -0.07015834 4287659361
-0.26355931 0.011817446 -0.069793344 4287529319
-0.2635963 0.013482952 -0.069969423 4287462757
-0.26387155 0.015221344 -0.070687331 4287527266
-0.26486883 0.017188124 -0.073047593 4287457112
-0.26563397 0.01910349 -0.074881159 4287386438
-0.26689938 0.021199677 -0.077853851 4287516990
-0.26868781 0.023499841 -0.082018539 4287780931
-0.2699998 0.025672907 -0.085100718 4288308559
-0.27924466 0.030712677 -0.10624807 4289167459
-0.29707909 -0.02629092 -0.14798434 4289759076
-0.29642209 -0.024351181 -0.1465957 4289231193
-0.29576984 -0.022422612 -0.14521724 4288900947
-0.2951223 -0.020505065 -0.14384896 4288439117
-0.2944794 -0.018598389 -0.14249064 4287978566
-0.29249406 -0.01681501 -0.1380633 4287713855
-0.2922022 -0.014911395 -0.13750546 4287450171
-0.29124931 -0.013080468 -0.13543572 4287122495
-0.28933182 -0.011376965 -0.13115861 4286923835
-0.28713754 -0.009744958 -0.12624604 4286858298
-0.27990052 -0.0088328719 -0.10979043 4286988078
-0.27595171 -0.007591336 -0.10085372 4287190337
-0.27324864 -0.0062358724 -0.094764926 4286997078
-0.27089143 -0.004876866 -0.08946532 4286929735
-0.26859924 -0.0035529046 -0.084312007 4286935387
-0.26612139 -0.0023085652 -0.078730606 4287190587
-0.26615798 -0.00062169763 -0.078909718 4287254853
-0.26570052 0.00096587848 -0.077956229 4287648322
-0.2652458 0.0025462939 -0.077008702 4287777850
-0.26479387 0.0041195983 -0.076067045 4287643955
-0.26458716 0.0057432428 -0.075687625 4287512882
-0.26413932 0.0073047094 -0.074754603 4287449916
-0.26393461 0.0089210756 -0.074379325 4287525466
-0.26373056 0.010535018 -0.074005365 4287463527
-0.26376697 0.0122131 -0.074183561 4287332455
-0.26380345 0.013893586 -0.074361995 4287397220
-0.26432192 0.015720185 -0.075648218 4287392856
-0.26533145 0.017710697 -0.078063756 4287321670
-0.26709962 0.019965706 -0.082224712 4287385148
-0.26865071 0.022187468 -0.085888609 4287518016
-0.27286491 0.025347766 -0.09568017 4287782215
-0.27562246 0.028087219 -0.10212538 4288639319
-0.2970145 -0.026249081 -0.15255737 4289297755
-0.29600161 -0.024310576 -0.15033463 4288968020
-0.29499966 -0.022390177 -0.14813609 4288639060
-0.29400846 -0.020487614 -0.14596133 4288243535
-0.29336739 -0.018577458 -0.14459397 4287913029
-0.28973863 -0.016929902 -0.13632467 4287515708
-0.28815684 -0.015161465 -0.13278069 4287317302
-0.28660217 -0.013420641 -0.12929772 4287188283
-0.28476349 -0.011742407 -0.12515639 4287123521
-0.28235629 -0.0101711 -0.11969844 4286992187
-0.27797869 -0.0089138821 -0.10968036 4286991420
-0.27408445 -0.0076743658 -0.10077542 4287457099
-0.27141827 -0.0063217385 -0.094707862 4286996053
-0.26935223 -0.004922532 -0.090026245 4286927430
-0.26759058 -0.0035104593 -0.086047165 4286085982
-0.26737306 -0.0018447865 -0.08564207 4285619773
-0.26590234 -0.00042879925 -0.082333855 4286796607
-0.26544201 0.0011679274 -0.081365049 4287578421
-0.26498449 0.0027573665 -0.080402292 4287709488
-0.26477471 0.004395498 -0.080013469 4287578417
-0.2643213 0.0059728301 -0.079059616 4287513396
-0.26411358 0.0076035061 -0.078675032 4287518272
-0.26390648 0.0092316456 -0.078291841 4287461727
-0.2639423 0.010922577 -0.078472182 4287398505
-0.26422116 0.012683856 -0.07921689 4287332198
-0.26425716 0.014382104 -0.079397999 4287330140
-0.26478159 0.016229555 -0.080713749 4287389512
-0.26605204 0.018321602 -0.083763242 4287385146
-0.26835856 0.020774812 -0.089221813 4287319613
-0.26994449 0.023038674 -0.093008466 4287648835
-0.2734395 0.025990911 -0.10123552 4288176716
-0.27679878 0.028970085 -0.1091513 4288967769
-0.29623947 -0.026230371 -0.15554364 4288837720
-0.2952261 -0.024284795 -0.15329757 4288703313
-0.2942237 -0.02235751 -0.15107606 4288571728
-0.29323211 -0.020448159 -0.14887869 4288243275
-0.29225117 -0.018556455 -0.14670508 4287846208
-0.28831121 -0.016933881 -0.13762216 4287383607
-0.28706053 -0.015134832 -0.13481472 4287120437
-0.28551164 -0.013391105 -0.13130923 4287055415
-0.28367996 -0.011710205 -0.1271413 4286926139
-0.28098235 -0.010174344 -0.12094738 4286926912
-0.27635282 -0.0089556947 -0.11023431 4286861891
-0.27304521 -0.0076371543 -0.10260659 4286997586
-0.27039024 -0.0062828572 -0.096501492 4287060314
-0.26859173 -0.004838496 -0.092396781 4287657814
-0.26708612 -0.0033777212 -0.088975452 4285097814
-0.26686746 -0.0017044035 -0.088564813 4284372794
-0.26564342 -0.00023356942 -0.085799992 4285424704
-0.26518017 0.0013724115 -0.084815517 4286994246
-0.26496726 0.0030253064 -0.084416986 4287579190
-0.26450822 0.0046188743 -0.083441667 4287512884
-0.2642974 0.0062641264 -0.083047554 4287448119
-0.26433262 0.0079682944 -0.083230115 4287652169
-0.26412246 0.0096107731 -0.08283738 4287461983
-0.26415771 0.011317159 -0.08302018 4287397733
-0.26443857 0.01309515 -0.083779328 4287396963
-0.26496738 0.014953244 -0.085120879 4287325777
-0.26574889 0.016900606 -0.087056369 4287385404
-0.26704344 0.019026861 -0.090197563 4287384886
-0.2686162 0.021272112 -0.093993872 4287385658
-0.27021849 0.023562068 -0.097861737 4287780932
-0.27320445 0.026364787 -0.10498314 4288440146
-0.27658001 0.029370734 -0.1130242 4289363812
-0.29616755 -0.026187629 -0.16022274 4288574294
-0.29514617 -0.024227982 -0.15793569 4288505936
-0.29413593 -0.022286855 -0.15567383 4288375119
-0.29313666 -0.020364 -0.15343672 4288047436
-0.29180783 -0.018484602 -0.15042105 4287585606
-0.28688353 -0.016937833 -0.13891986 4287188027
-0.28564179 -0.015138605 -0.13610435 4287055157
-0.28379208 -0.013427844 -0.13185208 4287054644
-0.28167531 -0.011784754 -0.12696697 4287054388
-0.27931148 -0.010215246 -0.12149569 4286925112
-0.27501354 -0.008958715 -0.11145176 4287058238
-0.272275 -0.0075595439 -0.10508806 4287060805
-0.26962298 -0.0062020542 -0.098925456 4287125837
-0.26808557 -0.0047102496 -0.095395356 4287392593
-0.2676028 -0.0030599707 -0.094358042 4285292614
-0.26661161 -0.0015144915 -0.092117183 4284438844
-0.26513037 -8.6070133e-05 -0.088715464 4285226560
-0.2649149 0.0015794339 -0.088308461 4286863691
-0.2647002 0.0032422463 -0.087902948 4287448118
-0.26448622 0.0049023824 -0.087498963 4287448116
-0.2642729 0.0065598693 -0.087096445 4287382589
-0.2643075 0.0082771322 -0.087281212 4287588434
-0.26409489 0.0099318 -0.086880125 4287462499
-0.26437685 0.011718938 -0.087651528 4287462757
-0.2646597 0.013513987 -0.088425539 4287326810
-0.26519319 0.015390564 -0.089794472 4287255109
-0.26598206 0.017358063 -0.091770217 4287383864
-0.26806241 0.019751895 -0.096812502 4287384889
-0.26887843 0.021778783 -0.098855726 4287451967
-0.27023157 0.024005719 -0.10217569 4287848010
-0.27434799 0.027223902 -0.11206147 4288639066
-0.29573673 -0.02615642 -0.16411924 4288376917
-0.29506484 -0.024170306 -0.16264212 4288243280
-0.29404664 -0.022215193 -0.16033892 4288046157
-0.29408598 -0.020210421 -0.16055559 4287783755
-0.29204348 -0.018360231 -0.15580827 4287454281
-0.28642014 -0.016858803 -0.14251798 4287123008
-0.28485587 -0.015081317 -0.13890453 4287055415
-0.28269631 -0.013398345 -0.13386835 4287055158
-0.28058797 -0.011752675 -0.12895194 4287054643
-0.27823377 -0.010180824 -0.12344588 4286857525
-0.27480048 -0.0088058384 -0.11535966 4286924600
-0.2720468 -0.0073999669 -0.10889276 4287123260
-0.2693806 -0.006036262 -0.10263142 4287190082
-0.26757443 -0.0045807622 -0.098422363 4287322951
-0.26734903 -0.0028762775 -0.09799061 4286471493
-0.26660886 -0.0012731698 -0.096327536 4286142785
-0.26511535 0.00016417731 -0.092861332 4286339134
-0.26464623 0.0017889772 -0.091844648 4287254076
-0.26442972 0.0034618366 -0.09143202 4287512882
-0.26421392 0.0051319897 -0.091020897 4287578930
-0.26399884 0.0067994087 -0.090611376 4287448382
-0.26403275 0.0085273627 -0.090798117 4287589463
-0.26406673 0.010257751 -0.090985104 4287528548
-0.26434988 0.012059248 -0.091769509 4287395422
-0.26488477 0.01394057 -0.093157835 4287257675
-0.26542297 0.015835999 -0.094554931 4287253051
-0.26673126 0.017981542 -0.097800024 4287384377
-0.26806015 0.020163305 -0.10109637 4287516476
-0.26861867 0.022121703 -0.1025457 4287649348
-0.27186599 0.025007252 -0.11045067 4288178258
-0.2953009 -0.026124835 -0.16805927 4288245077
-0.29462585 -0.024127714 -0.1665604 4288046159
-0.29360339 -0.022161916 -0.16422392 4287848266
-0.29364192 -0.020145951 -0.16444272 4287651144
-0.29124841 -0.018312406 -0.15879992 4287388234
-0.28562808 -0.01680701 -0.14537443 4287123524
-0.28374752 -0.015054435 -0.14096041 4287055673
-0.28098112 -0.01343507 -0.13440722 4287055159
-0.27889571 -0.011791603 -0.12949364 4286990135
-0.27685919 -0.010184065 -0.12469539 4286858297
-0.27458438 -0.008650938 -0.11931932 4286924346
-0.27181542 -0.0072383112 -0.11274703 4287122233
-0.26913497 -0.0058683353 -0.10638497 4287253818
-0.26731914 -0.0044053677 -0.10210861 4287320895
-0.26735285 -0.0026428357 -0.1022999 4287389254
-0.26634738 -0.0010778607 -0.099979207 4287387717
-0.26484606 0.00036674304 -0.096458197 4287255618
-0.26462629 0.0020550878 -0.096035138 4287580212
-0.26415569 0.0036841661 -0.095004991 4287578930
-0.26418892 0.0054233903 -0.095193774 4287644467
-0.2639713 0.0071033975 -0.094775394 4287514173
-0.26400459 0.0088448403 -0.0949644 4287590234
-0.26428893 0.010655778 -0.095761672 4287659618
-0.26508018 0.012615435 -0.097787619 4287457620
-0.26587892 0.01459595 -0.09983287 4287320128
-0.26642692 0.016520305 -0.10127147 4287318584
-0.26697841 0.018459259 -0.10271938 4287385147
-0.26805761 0.020581201 -0.10544816 4287582527
-0.26915064 0.022732722 -0.10821199 4287912520
-0.27189231 0.025474099 -0.11497848 4288442198
-0.29450127 -0.026105268 -0.17117059 4288179286
-0.2941817 -0.024084644 -0.17052248 4287980109
-0.29350859 -0.022088405 -0.16901304 4287782472
-0.29284045 -0.020104066 -0.16751498 4287519557
-0.29148152 -0.018184869 -0.16433312 4287322183
-0.28912297 -0.016379822 -0.15871328 4287189829
-0.287485 -0.01455226 -0.15484703 4287122237
-0.2820431 -0.013170641 -0.1417028 4287055160
-0.27870226 -0.011652332 -0.13367619 4286924345
-0.27665335 -0.010035466 -0.12879719 4286859324
-0.27436519 -0.0084940093 -0.12333181 4286925376
-0.27213714 -0.0069904397 -0.11801007 4287189054
-0.26915485 -0.0056547448 -0.1108436 4287253820
-0.26865116 -0.0039532133 -0.10972738 4287386430
-0.26735651 -0.002405636 -0.10667807 4287585092
-0.26634213 -0.00082965294 -0.10431208 4287649862
-0.26534057 0.0007289729 -0.10197616 4287517511
-0.26435161 0.0022705556 -0.099669702 4287580214
-0.26413068 0.0039664134 -0.099240728 4287644981
-0.26416329 0.0057193637 -0.09943182 4287644469
-0.26394314 0.0074121333 -0.099004447 4287514429
-0.26422861 0.0092326179 -0.099814788 4287524697
-0.26451507 0.011061293 -0.10062796 4287658591
-0.2650578 0.012969702 -0.10206935 4287454027
-0.26586178 0.014967618 -0.10415178 4287318075
-0.26667345 0.016987039 -0.10625424 4287318585
-0.26749289 0.019028246 -0.10837704 4287450940
-0.26832029 0.021091606 -0.11052045 4287714626
-0.27050894 0.023629781 -0.11600418 4288111179
-0.27164191 0.025852975 -0.11890098 4288706136
-0.29333827 -0.026097912 -0.17342658 4288179029
-0.29301924 -0.024073415 -0.17277408 4287914059
-0.29199606 -0.022093067 -0.17038782 4287651656
-0.29168195 -0.020085257 -0.16974634 4287388484
-0.29067373 -0.018135814 -0.16739485 4287255873
-0.28899378 -0.01626502 -0.16338705 4287255618
-0.28734413 -0.014425164 -0.15945174 4287254849
-0.28218257 -0.013003016 -0.14685676 4287056444
-0.2788094 -0.011474681 -0.13866459 4286924345
-0.27614912 -0.0099235149 -0.13222635 4286859067
-0.27414292 -0.008334958 -0.12739818 4286925377
-0.27218312 -0.0067805881 -0.12268198 4287124804
-0.26890376 -0.005481903 -0.11470552 4287190340
-0.26866609 -0.0037229192 -0.11423574 4287518531
-0.26736 -0.0021646617 -0.11112665 4287584067
-0.26633659 -0.00057750905 -0.10871427 4287716163
-0.26532623 0.00099201326 -0.1063328 4287516996
-0.26432866 0.0025442301 -0.10398156 4287645237
-0.26410511 0.0042531295 -0.1035433 4287644726
-0.2638824 0.0059591276 -0.10310672 4287644470
-0.26391432 0.0077256854 -0.10330012 4287449149
-0.2642011 0.0095611354 -0.1041244 4287524695
-0.26448885 0.011404838 -0.1049516 4287393625
-0.26529297 0.013402436 -0.10705817 4287255108
-0.26610485 0.01542164 -0.1091851 4287252281
-0.26692453 0.017462725 -0.11133271 4287384377
-0.26775214 0.019526023 -0.11350127 4287582012
-0.2683194 0.021524375 -0.11502559 4287846979
-0.27080044 0.024181891 -0.1212971 4288245072
-0.29181632 -0.026102928 -0.17480986 4288179030
-0.29149911 -0.024078261 -0.17415574 4287914058
-0.2904833 -0.022097729 -0.17176281 4287651399
-0.29051897 -0.020066377 -0.17198615 4287388229
-0.2895143 -0.018113296 -0.16961896 4287190592
-0.28683016 -0.016328827 -0.16306727 4287059263
