# .PCD v0.7 - Point Cloud Data file format
VERSION 0.7
FIELDS x y z rgba
SIZE 4 4 4 4
TYPE F F F U
COUNT 1 1 1 1
WIDTH 994
HEIGHT 1
VIEWPOINT 0 0 0 1 0 0 0
POINTS 994
DATA ascii
-0.29970416 -0.0135486 -0.058034711 4288964433
-0.29765078 -0.012068133 -0.054399882 4288305988
-0.29447892 -0.010749223 -0.048752457 4287844925
-0.2931022 -0.009263129 -0.04633208 4287448886
-0.29146588 -0.0078334678 -0.043443929 4286855725
-0.29068637 -0.0063107242 -0.042096533 4286395435
-0.28963929 -0.0048398664 -0.040267237 4286137409
-0.28887585 -0.0033411516 -0.038947839 4287071339
-0.28811911 -0.0018531944 -0.037640098 4287135593
-0.28790504 -0.00028231923 -0.03730901 4287855463
-0.28796014 0.0013354521 -0.0374626 4287534712
-0.28774679 0.0029039665 -0.037132677 4287989110
-0.28780198 0.0045239418 -0.037286472 4288319857
-0.28785726 0.0061461795 -0.037440468 4288057462
-0.28791261 0.0077707102 -0.037594691 4288189817
-0.28823692 0.0094583873 -0.038233731 4288518524
-0.28910413 0.011280649 -0.039851531 4288650879
-0.28970522 0.013054435 -0.040990125 4288781954
-0.29086161 0.014980215 -0.043130424 4288848518
-0.29091817 0.016640175 -0.043288 4289636492
-0.29042274 0.018153442 -0.042450074 4291145612
-0.29020441 0.019736631 -0.042111713 4292654473
-0.28916895 0.021082511 -0.040299058 4292723856
-0.28814551 0.022415206 -0.038507503 4291020446
-0.28686893 0.023654174 -0.036258426 4289376917
-0.28613392 0.025041975 -0.034986343 4289109638
-0.28540525 0.026420241 -0.033725299 4289831808
-0.28520063 0.027960595 -0.033410165 4289965698
-0.285777 0.029764093 -0.03450539 4288975736
-0.28635669 0.031580187 -0.03560704 4288244058
-0.2872045 0.033503633 -0.037193481 4288041793
-0.28859621 0.035642497 -0.039763216 4287973947
-0.29055589 0.038020167 -0.043360211 4288435527
-0.29255593 0.040449224 -0.047031485 4290020197
-0.30361372 -0.01652709 -0.068443932 4290284909
-0.30114999 -0.015007028 -0.064032838 4289562472
-0.29874721 -0.013522099 -0.059730835 4289032539
-0.29670006 -0.012039515 -0.056073163 4288305732
-0.29382652 -0.010685867 -0.050913692 4287845181
-0.2921657 -0.009230759 -0.04795501 4287449659
-0.29081348 -0.0077622607 -0.04555589 4286922805
-0.28975704 -0.0062742108 -0.043693304 4286659374
-0.28844032 -0.0048420494 -0.041357219 4287192395
-0.28768125 -0.0033432243 -0.040033858 4287401077
-0.28692886 -0.0018551084 -0.038722165 4287137646
-0.28671569 -0.00028412748 -0.038390279 4287005292
-0.2865032 0.0012846042 -0.038059585 4287069028
-0.28629139 0.0028510597 -0.037730034 4286997073
-0.28634569 0.004468821 -0.037884373 4286802522
-0.28640005 0.0060888459 -0.038038924 4287005289
-0.2864545 0.0077111558 -0.038193695 4287727980
-0.28704259 0.0094573302 -0.039319634 4288583283
-0.28763416 0.011215941 -0.040452309 4288715899
-0.28822926 0.012987092 -0.04159179 4288783495
-0.2888279 0.014770879 -0.042738114 4288918169
-0.28888336 0.0164237 -0.042895805 4288790441
-0.28866664 0.01800487 -0.042557858 4289049505
-0.28845063 0.019583808 -0.042221136 4289701262
-0.28742746 0.020926801 -0.040413845 4290353791
-0.28641617 0.022256715 -0.038627576 4291272824
-0.28541648 0.023573723 -0.036861934 4291144058
-0.28416932 0.024796318 -0.034644663 4289569667
-0.28422382 0.026420588 -0.034799624 4288317817
-0.28427842 0.028047165 -0.03495479 4288047454
-0.28511274 0.029942771 -0.036532003 4288042311
-0.28621799 0.031949516 -0.038603939 4287907897
-0.28733608 0.033981737 -0.040699963 4287841335
-0.28873801 0.036139723 -0.043314636 4288040510
-0.29043615 0.03843572 -0.046470754 4289031509
-0.30359778 -0.016427331 -0.071957812 4290283624
-0.30111787 -0.014898825 -0.06747552 4289365095
-0.29869971 -0.013405886 -0.063104898 4289035620
-0.2960431 -0.011979078 -0.058295887 4288241996
-0.29288191 -0.010655454 -0.05256002 4287843642
-0.29122621 -0.0091983164 -0.049582958 4287515194
-0.2898781 -0.0077277594 -0.04716897 4286988853
-0.28882477 -0.0062375916 -0.045294955 4286791740
-0.28751209 -0.0048034806 -0.042944506 4287528033
-0.28675514 -0.0033024934 -0.041613057 4287663219
-0.28600487 -0.0018122987 -0.040293366 4287466611
-0.28552616 -0.00028594202 -0.039471712 4287268207
-0.28531456 0.0012829251 -0.039140221 4286543198
-0.28510362 0.0028495013 -0.038809892 4286267183
-0.28515708 0.0044673868 -0.038964998 4286199596
-0.28521061 0.0060875351 -0.039120331 4286333754
-0.28552884 0.0077683348 -0.039761979 4286533959
-0.2855826 0.0093954057 -0.039917968 4286930510
-0.28643534 0.011215 -0.041542292 4286999897
-0.28648946 0.012853744 -0.041699406 4287135334
-0.28681171 0.014563338 -0.04234942 4287467639
-0.28740457 0.016351571 -0.043497302 4287667843
-0.28692055 0.01785717 -0.042665195 4287800713
-0.28670684 0.019431865 -0.042330056 4287800715
-0.28543139 0.020695029 -0.040041666 4287862916
-0.284435 0.02202066 -0.038265936 4288118128
-0.28345001 0.023333509 -0.03651065 4288374105
-0.28298858 0.024796544 -0.035718374 4288042569
-0.28278562 0.026337154 -0.035401754 4287516225
-0.28412995 0.028394479 -0.037933748 4287119931
-0.28496757 0.030302564 -0.039533585 4287183666
-0.28687716 0.032605547 -0.043108344 4287446062
-0.28800961 0.034662422 -0.045252766 4287842104
-0.28943002 0.036847699 -0.047928445 4288634955
-0.29171258 0.039387234 -0.052193876 4290021220
-0.30358142 -0.016326288 -0.07551682 4290282595
-0.30108514 -0.014789253 -0.070962012 4289561955
-0.2983444 -0.013318581 -0.065953247 4289363038
-0.29567963 -0.011886241 -0.061083432 4288373327
-0.29250923 -0.010558023 -0.055275936 4287777596
-0.29056573 -0.0091304723 -0.051738098 4287449144
-0.28893977 -0.0076931529 -0.048787042 4286989623
-0.28816432 -0.0061616478 -0.047410361 4286726717
-0.28685179 -0.0047237799 -0.045038313 4287067482
-0.28582618 -0.0032616621 -0.043197036 4287070313
-0.28507802 -0.0017693591 -0.041869316 4287400047
-0.28460047 -0.00024076812 -0.041042689 4287596653
-0.28386313 0.0012322275 -0.039734263 4286728003
-0.28391567 0.0028479737 -0.039889917 4286395424
-0.2839683 0.0044659609 -0.040045802 4286198301
-0.283759 0.006030398 -0.039715882 4286263074
-0.28407377 0.0077087907 -0.040358212 4286329636
-0.28438962 0.0093943477 -0.041002646 4286264871
-0.28497097 0.011150489 -0.042140119 4286200362
-0.28555581 0.012919122 -0.043284394 4286201651
-0.28560925 0.014562671 -0.043442737 4286400061
-0.2856628 0.01620855 -0.043601304 4286663488
-0.28544998 0.017783433 -0.043265358 4286795073
-0.28497291 0.019280806 -0.042438548 4286861124
-0.28371271 0.020541545 -0.040156692 4286860098
-0.28272817 0.021864399 -0.038386177 4286793024
-0.28201032 0.023253977 -0.03711075 4286726973
-0.28206319 0.024878502 -0.037267253 4286660664
-0.28186044 0.026421292 -0.03694877 4286725173
-0.28397959 0.028745791 -0.040947076 4286724145
-0.28534922 0.03084977 -0.043553088 4286987056
-0.28782144 0.033371624 -0.048210669 4287513909
-0.28924787 0.035557982 -0.050924499 4288239683
-0.29069558 0.037779264 -0.053678911 4289296218
-0.30389047 -0.01619727 -0.07973063 4290021478
-0.3010518 -0.014678287 -0.074493125 4289431654
-0.29860222 -0.013169095 -0.069980845 4289037920
-0.29591233 -0.011727631 -0.065017872 4288246615
-0.29388368 -0.010254713 -0.061289258 4287712833
-0.29018384 -0.0090266401 -0.054434944 4287317305
-0.28855315 -0.0075836699 -0.051447351 4286923059
-0.28749973 -0.0060852729 -0.049538456 4286595387
-0.28591678 -0.0046848683 -0.046638299 4286869585
-0.28516185 -0.0031775616 -0.045286361 4286807137
-0.28414831 -0.0017262866 -0.043450013 4287069538
-0.28340882 -0.00024257717 -0.042126026 4286800475
-0.2826758 0.0012305477 -0.040813681 4286854953
-0.28272754 0.0028464177 -0.040970117 4286590750
-0.2825191 0.0044110054 -0.040639415 4286329116
-0.28231129 0.0059733968 -0.040309865 4286132001
-0.28262275 0.0076494236 -0.040952925 4286132259
-0.28293517 0.0093325805 -0.041598018 4286066723
-0.28351066 0.011086136 -0.042736348 4286198305
-0.28356299 0.012720392 -0.042894557 4286198563
-0.28387836 0.014425094 -0.043545969 4286263843
-0.28419471 0.016137054 -0.044199482 4286329893
-0.2839835 0.017709887 -0.043863967 4286330149
-0.28377298 0.019280495 -0.04352963 4286264361
-0.28278008 0.020617932 -0.041727573 4286395432
-0.28205597 0.022020608 -0.040429205 4286592295
-0.28133813 0.023413572 -0.039142169 4286658088
-0.28139028 0.025042851 -0.039299905 4286527274
-0.28144252 0.026674457 -0.039457858 4286724141
-0.28568378 0.029732134 -0.047480986 4286921776
-0.28654489 0.031688254 -0.049159493 4287186230
-0.28851148 0.034056939 -0.052914862 4287845440
-0.28995702 0.036271345 -0.055692866 4288768594
-0.30519766 -0.015984304 -0.085886873 4289693802
-0.30295107 -0.01438949 -0.081716821 4289104494
-0.30075487 -0.012827939 -0.077640466 4288773987
-0.29614845 -0.011566509 -0.069014028 4288179800
-0.29380408 -0.010118807 -0.064654231 4287520849
-0.29008257 -0.0088858167 -0.057693094 4287318592
-0.28816286 -0.0074732294 -0.054131735 4286922291
-0.28683102 -0.0060084411 -0.051679384 4286594872
-0.28551891 -0.0045629735 -0.04926338 4287196494
-0.28449345 -0.0030929646 -0.04738814 4286675042
-0.28347999 -0.0016378314 -0.045534924 4287133535
-0.28274044 -0.00015007146 -0.044198796 4286925124
-0.28226805 0.0013763279 -0.043367196 4286789683
-0.28205845 0.0029477025 -0.043032106 4286854184
-0.2818495 0.0045167832 -0.042698234 4286526244
-0.28164124 0.0060836473 -0.042365517 4286198050
-0.28169233 0.0077064601 -0.042523395 4286132255
-0.28174353 0.009331529 -0.042681467 4286263326
-0.28231475 0.011085199 -0.043823693 4286198048
-0.28236622 0.01271958 -0.043982688 4286263329
-0.28241777 0.014356283 -0.044141904 4286459933
-0.2827307 0.016065793 -0.044796139 4286394652
-0.2827825 0.017709479 -0.044956025 4286263584
-0.28257287 0.019280208 -0.044620883 4286263592
-0.28210384 0.020771526 -0.043794323 4286263850
-0.28137976 0.022177689 -0.042484123 4286461224
-0.28091764 0.023654645 -0.041670047 4286723624
-0.28122574 0.025374191 -0.042315517 4286789933
-0.28127742 0.027015273 -0.042475164 4286856753
-0.28662232 0.030469703 -0.052671257 4287120693
-0.28722239 0.03235599 -0.053872868 4287582269
-0.28865737 0.034555405 -0.056658585 4288241481
-0.29011399 0.036790326 -0.059486397 4289164890
-0.3068226 -0.017567065 -0.092675358 4290484601
-0.30653936 -0.015765686 -0.092206664 4289561448
-0.30558264 -0.014029664 -0.090454869 4289232999
-0.30364159 -0.012408353 -0.086826853 4288903258
-0.30173829 -0.010816065 -0.083269551 4287919191
-0.29402164 -0.0099458173 -0.068629898 4287525723
-0.28969401 -0.0087797642 -0.060446125 4287253822
-0.28804883 -0.0073235785 -0.057374328 4286857012
-0.28643319 -0.0058911485 -0.05435776 4286594613
-0.28484631 -0.0044818269 -0.051394984 4287194441
-0.28408885 -0.0029640868 -0.050013594 4286806369
-0.28333813 -0.0014573979 -0.048644621 4287066205
-0.28233063 -9.3888175e-06 -0.046785086 4287118644
-0.28185654 0.0015233867 -0.045943122 4286921779
-0.28138527 0.0030495666 -0.045106225 4286921006
-0.28117588 0.0046231747 -0.044769153 4286723887
-0.28096715 0.0061945366 -0.044433285 4286526767
-0.28101757 0.0078221625 -0.044592366 4286592041
-0.28080949 0.0093911793 -0.044257686 4286657569
-0.28163812 0.011211278 -0.045903988 4286657572
-0.2816889 0.012850524 -0.046064224 4286591524
-0.28173974 0.014492093 -0.046224687 4286657570
-0.2817907 0.016135953 -0.046385359 4286789153
-0.2818417 0.017782174 -0.046546269 4286789158
-0.28163227 0.019355197 -0.04620916 4286723886
-0.28142354 0.020926017 -0.045873217 4286724145
-0.28069943 0.022335675 -0.044551082 4286790705
-0.28075036 0.023979304 -0.044711731 4286922289
-0.28105912 0.025709329 -0.045366045 4286988339
-0.28136888 0.02744671 -0.046022527 4287120438
-0.28620759 0.030751115 -0.055351745 4287384634
-0.28708336 0.032744065 -0.057094488 4287912003
-0.28908634 0.035163328 -0.060997166 4288570959
-0.28998858 0.037211347 -0.062792301 4289626209
-0.30820727 -0.017366594 -0.099181645 4290286965
-0.30722669 -0.015598786 -0.097369 4289561445
-0.30591604 -0.013877526 -0.094920591 4289365092
-0.30395475 -0.012244249 -0.091219425 4288576092
-0.30203196 -0.010640414 -0.08759097 4287789665
-0.29919031 -0.0091793472 -0.082192458 4287462239
-0.2913262 -0.0084128054 -0.067122228 4287256136
-0.28737116 -0.0072493413 -0.059574019 4286921778
-0.28575587 -0.0058131632 -0.056529466 4286594354
-0.28444034 -0.0043581231 -0.054061081 4286863428
-0.28368047 -0.0028340686 -0.052662563 4286872673
-0.28292739 -0.001321172 -0.051276594 4286998107
-0.28218102 0.00018069595 -0.049903058 4287118128
-0.28144124 0.0016717233 -0.048541758 4287117613
-0.28122932 0.0032566395 -0.048197784 4287052595
-0.28075773 0.0047846348 -0.047352932 4286989371
-0.28054789 0.0063627311 -0.047012605 4287056449
-0.28033867 0.007938534 -0.04667351 4287056187
-0.28038847 0.0095732808 -0.046834052 4287055412
-0.28121802 0.011402244 -0.048499607 4287053362
-0.28126821 0.013048797 -0.048661318 4286922290
-0.28105763 0.014628697 -0.048319764 4286921518
-0.28110787 0.01627749 -0.048481692 4287052589
-0.28089797 0.017855059 -0.04814133 4287052591
-0.28094828 0.019506115 -0.048303492 4287053107
-0.28048027 0.021003515 -0.047464255 4287053365
-0.28001499 0.022494577 -0.046630081 4287053877
-0.28032267 0.024225267 -0.047289662 4287055158
-0.28089038 0.026048377 -0.048452154 4287055929
-0.28146148 0.02788445 -0.049621664 4287187516
-0.28606299 0.031130085 -0.058586389 4287516993
-0.28749821 0.033334628 -0.061429821 4288109640
-0.2892386 0.035678491 -0.064864881 4288834644
-0.29043451 0.037852015 -0.067247517 4290087271
-0.30752409 -0.017318496 -0.10177669 4290155890
-0.30757982 -0.015457734 -0.10196031 4289628006
-0.30659825 -0.013690909 -0.1001287 4288971110
-0.3049475 -0.012008533 -0.096996002 4288313952
-0.3033241 -0.010351449 -0.093915388 4287854430
-0.30042556 -0.0088754427 -0.088354707 4287592282
-0.29181856 -0.008188243 -0.071692571 4287057219
-0.28753299 -0.0070579401 -0.063428231 4286856243
-0.28562611 -0.0056533813 -0.059787638 4286659634
-0.28403053 -0.0042333351 -0.056751277 4286598466
-0.28326827 -0.0027028902 -0.05533528 4286938721
-0.28251284 -0.0011837312 -0.053932112 4286864468
-0.28176412 0.00032429211 -0.052541547 4286986541
-0.28128514 0.0018721134 -0.051675547 4287183401
-0.28080902 0.0034131517 -0.050814897 4287118647
-0.28033575 0.0049475143 -0.04995947 4287257931
-0.28012475 0.0065323729 -0.049614649 4287063635
-0.28017393 0.0081745079 -0.049776699 4286801999
-0.28048351 0.0098810364 -0.050446339 4286801487
-0.2805329 0.011530183 -0.050609078 4287127371
-0.28032187 0.01311473 -0.050264232 4287059531
-0.28037134 0.014766118 -0.050427191 4287054650
-0.28042087 0.01641982 -0.050590381 4287118642
-0.28021052 0.018001923 -0.050246749 4287184435
-0.28026012 0.019657889 -0.05041017 4287184693
-0.28005046 0.021237658 -0.050067786 4287119670
-0.27984148 0.022815185 -0.049726591 4287119669
-0.28040934 0.024639916 -0.050901823 4287056187
-0.2812424 0.026564248 -0.052595362 4287059271
-0.28181866 0.028418135 -0.053788129 4287323984
-0.28646994 0.031706795 -0.062941067 4287849296
-0.28820267 0.03403708 -0.06639567 4288374352
-0.28939307 0.03620154 -0.068791881 4289296990
-0.29117969 0.038614307 -0.072354309 4290549104
-0.30823496 -0.017164508 -0.1071334 4290089070
-0.30758825 -0.015343903 -0.1059425 4289561699
-0.30694601 -0.013533061 -0.10476001 4288773218
-0.30527753 -0.011837757 -0.10156299 4288247898
-0.30397373 -0.010130443 -0.099080622 4287985242
-0.30103603 -0.0086430237 -0.093389452 4287524436
-0.2920211 -0.0079983044 -0.075762294 4286923323
-0.28741258 -0.0069032162 -0.066782899 4286724914
-0.28549454 -0.0054916567 -0.063085407 4286593841
-0.28388971 -0.0040644105 -0.060001913 4286399295
-0.28285217 -0.0025705306 -0.058032144 4287134814
-0.28236252 -0.00099793368 -0.05713854 4286862924
-0.28160921 0.00051835336 -0.055726286 4287051821
-0.28112704 0.0020748544 -0.054846577 4287118121
-0.28038484 0.0035710542 -0.053455267 4287118905
-0.27990991 0.0051118215 -0.052589145 4287458901
-0.27943775 0.006645876 -0.051728278 4287001434
-0.28000706 0.0084132357 -0.05291649 4286674263
-0.27979487 0.010004761 -0.052567072 4286609244
-0.27958339 0.011593979 -0.052218888 4287002462
-0.27963209 0.013247977 -0.052382894 4286998106
-0.27968085 0.014904327 -0.05254712 4287055934
-0.27972963 0.016563013 -0.052711602 4287053106
-0.27951887 0.018149637 -0.052364651 4287184947
-0.27982751 0.019887401 -0.053041212 4287250484
-0.27987653 0.021553129 -0.05320638 4287185206
-0.27992561 0.023221217 -0.053371772 4287185719
-0.28023553 0.024976034 -0.054051507 4287187773
-0.28186586 0.027177632 -0.057335589 4287257420
-0.28271699 0.029144341 -0.059083965 4287722589
-0.28716525 0.032392867 -0.067929894 4288248672
-0.28863564 0.034651265 -0.07090313 4288705370
-0.28983879 0.036839649 -0.073350132 4289759593
-0.30719051 -0.017141761 -0.10909517 4289956201
-0.30654532 -0.015318014 -0.10789653 4289298274
-0.30590457 -0.013504012 -0.10670628 4288772447
-0.3045823 -0.011770659 -0.10416472 4288179796
-0.30294108 -0.010095877 -0.10098985 4287787866
-0.30033982 -0.0085665649 -0.095910117 4287391570
-0.29222661 -0.0078053921 -0.079896577 4286922293
-0.28757659 -0.0067064865 -0.070746638 4286659376
-0.28564131 -0.0052861203 -0.066979408 4286528559
-0.28402215 -0.0038498074 -0.06383805 4286528571
-0.28297514 -0.0023458905 -0.061831132 4287394902
-0.28221023 -0.00080988533 -0.060383569 4286992710
-0.28145227 0.00071472977 -0.058949176 4287117868
-0.28070113 0.0022280705 -0.057527799 4287316525
-0.28022012 0.0037842933 -0.056642488 4287251515
-0.27948004 0.0052775913 -0.055242211 4287589204
-0.27900624 0.0068180403 -0.054370549 4287394134
-0.27931464 0.0085330606 -0.055053215 4287264083
-0.279102 0.010129215 -0.054700416 4287199579
-0.2788901 0.011723013 -0.05434892 4287330910
-0.27893806 0.013382018 -0.054514203 4287193172
-0.2789861 0.015043344 -0.054679703 4287186235
-0.27903423 0.016707024 -0.054845441 4287119154
-0.27908239 0.018373054 -0.055011414 4287185458
-0.27913064 0.020041438 -0.055177625 4287250740
-0.27943927 0.021792129 -0.055862289 4287185206
-0.28001082 0.023633242 -0.057070836 4287253821
-0.2808502 0.025573734 -0.058813196 4287584578
-0.28196463 0.02762364 -0.061104279 4287716934
-0.28309253 0.029700527 -0.063423067 4288050005
-0.28816143 0.03319497 -0.073596328 4288512097
-0.29024091 0.035699934 -0.077815324 4289101411
-0.29147199 0.037929285 -0.080344684 4290286705
-0.30719692 -0.017038299 -0.11317401 4289890407
-0.30619588 -0.015232266 -0.11125275 4289101670
-0.30590019 -0.013376114 -0.11074264 4288706398
-0.30491272 -0.011595824 -0.10884735 4287980883
-0.30291489 -0.0099466844 -0.10492835 4287456850
-0.29963881 -0.0084895687 -0.09844771 4287192397
-0.29458651 -0.0073257168 -0.088406391 4286987057
-0.29008439 -0.0061762515 -0.079463437 4286725170
-0.28579012 -0.0050774203 -0.070933446 4286659886
-0.28387895 -0.0036762387 -0.067176715 4286724663
-0.28282562 -0.0021641364 -0.06513831 4287523662
-0.28205594 -0.00061956904 -0.063667879 4286991683
-0.28129324 0.00091343868 -0.062210906 4287118125
-0.28053746 0.0024350854 -0.060767233 4287383348
-0.27978846 0.0039454703 -0.059336644 4287253824
-0.27904621 0.0054447995 -0.057919014 4287586377
-0.27961928 0.007227493 -0.059141036 4287653709
-0.27887902 0.0087147271 -0.057726804 4287654989
-0.27866521 0.010317801 -0.057369299 4287787092
-0.27845213 0.011918496 -0.057013102 4287786066
-0.27823976 0.013516841 -0.056658164 4287516996
-0.27802804 0.015112811 -0.056304492 4287447351
-0.27807537 0.016779063 -0.05647127 4287316274
-0.27838191 0.018522941 -0.05715923 4287250739
-0.27868944 0.020274315 -0.057849441 4287250484
-0.27925956 0.022114139 -0.059067972 4287185463
-0.28036189 0.024135755 -0.061357524 4287387459
-0.28147748 0.026183961 -0.063674651 4287720527
-0.2839756 0.028721306 -0.068774581 4287851857
-0.28884023 0.03212842 -0.078639254 4288181078
-0.29154551 0.034859359 -0.084161282 4288773984
-0.29280144 0.037112761 -0.086767681 4289564011
-0.30649403 -0.016987987 -0.11587642 4289890663
-0.30584261 -0.015145632 -0.11464383 4289232995
-0.30519575 -0.013313315 -0.11341999 4288771672
-0.30386287 -0.011563251 -0.11080849 4287786324
-0.30220917 -0.009872959 -0.10754713 4287257418
-0.29860619 -0.0084524266 -0.10034127 4286991168
-0.292647 -0.0074102813 -0.088365145 4286855729
-0.28967774 -0.0060528251 -0.082434975 4286659377
-0.28565615 -0.0049086181 -0.074372306 4286725164
-0.28373381 -0.0035005338 -0.070556499 4286790194
-0.28267407 -0.0019801634 -0.068485878 4287587141
-0.28189954 -0.00042696632 -0.066992112 4287056963
-0.28140286 0.0011656999 -0.066060662 4287183664
-0.28064004 0.0026977526 -0.064589567 4287250742
-0.27961805 0.0041631837 -0.062592685 4287252800
-0.27913502 0.0057278345 -0.061687514 4287517759
-0.27944639 0.0074647106 -0.062392674 4287583809
-0.2789647 0.0090219257 -0.061489888 4287649346
-0.27848598 0.010572237 -0.060592737 4287518280
-0.27801013 0.012115715 -0.059701119 4287451203
-0.2780568 0.013789697 -0.059869453 4287514937
-0.27784327 0.015394828 -0.059509754 4287578421
-0.27789 0.017071052 -0.05967832 4287381556
-0.27819723 0.018825805 -0.060375888 4287250486
-0.27876747 0.020667272 -0.061607901 4287250999
-0.27934116 0.022522064 -0.062847473 4287185974
-0.28098759 0.024733467 -0.066266999 4287188029
-0.2829383 0.027078133 -0.070306383 4287325007
-0.28691745 0.03015079 -0.078470223 4287525468
-0.28899762 0.032637149 -0.082776979 4287853149
-0.29172567 0.035397224 -0.088402949 4288640095
-0.29329813 0.037785068 -0.091681078 4289692520
-0.30578604 -0.016937349 -0.11859779 4289825129
-0.30443418 -0.015149406 -0.11592405 4289232992
-0.3037912 -0.013316897 -0.11469671 4288572757
-0.30212578 -0.01160269 -0.11138068 4287786843
-0.30048856 -0.0099147744 -0.10812088 4287324751
-0.29724538 -0.0084554916 -0.10157827 4287053106
-0.29255295 -0.0072492133 -0.092071049 4286855981
-0.28926703 -0.0059282319 -0.085435063 4286725165
-0.28552029 -0.0047377441 -0.077854142 4286724906
-0.28358671 -0.0033226884 -0.073978133 4286789420
-0.28252047 -0.0017939644 -0.071874678 4287518781
-0.28201565 -0.00018236766 -0.070918918 4287188549
-0.28124097 0.0013698738 -0.0694106 4287380013
-0.28047338 0.0029104259 -0.067916207 4287380528
-0.27971283 0.0044393968 -0.066435538 4287445810
-0.28056639 0.0063082105 -0.06825947 4287447092
-0.27980551 0.0078266151 -0.066777751 4287448373
-0.27878633 0.0092707314 -0.064766303 4287580730
-0.27883255 0.010960137 -0.064936988 4287318081
-0.27835053 0.012516415 -0.064025238 4287187524
-0.27813372 0.01413556 -0.063656673 4287383869
-0.27791762 0.015752243 -0.063289478 4287578420
-0.27796385 0.01744107 -0.063460097 4287446836
-0.2782726 0.019209603 -0.06416931 4287250486
-0.27884644 0.021066081 -0.065422669 4287251255
-0.27969038 0.023019716 -0.067230769 4287252025
-0.28108254 0.025168125 -0.070164897 4287253826
-0.28249601 0.027351776 -0.073143937 4287456081
-0.28734979 0.030741513 -0.083187982 4287720534
-0.28975081 0.033362743 -0.088199191 4287979341
-0.29160449 0.035833798 -0.092088349 4288835155
-0.29380423 0.038470421 -0.096690089 4290152552
-0.30436864 -0.016941268 -0.11988614 4289628781
-0.30406952 -0.015061891 -0.11935738 4288904801
-0.30307657 -0.013253676 -0.11739724 4288179024
-0.3017517 -0.011497742 -0.11475142 4287656021
-0.30010834 -0.0098020108 -0.11144739 4287328595
-0.29620665 -0.0084182536 -0.1034806 4286791990
-0.29245749 -0.0070860474 -0.095825486 4286790955
-0.28945139 -0.0057161092 -0.089701436 4286856236
-0.28538254 -0.0045646969 -0.081379868 4286986793
-0.28371948 -0.0030966608 -0.07802473 4286921004
-0.28264332 -0.001557402 -0.075880878 4287450681
-0.28185648 1.5586626e-05 -0.074334025 4287255628
-0.2813513 0.0016291117 -0.07336887 4287577131
-0.2805765 0.0031803264 -0.0718458 4287380525
-0.27980879 0.0047198264 -0.070336819 4287381040
-0.28094137 0.0066643595 -0.0727579 4287380530
-0.28017098 0.0081950892 -0.071242973 4287446577
-0.27967656 0.009778671 -0.070298575 4287576625
-0.27891785 0.011288548 -0.068806693 4287577138
-0.27869695 0.012924351 -0.068427682 4287577393
-0.27821162 0.014486606 -0.067500964 4287577390
-0.2779929 0.016115027 -0.06712608 4287512110
-0.2777749 0.017740985 -0.066752546 4287578163
-0.27808437 0.019520681 -0.06747175 4287512629
-0.27866024 0.021389388 -0.068743415 4287382070
-0.27977622 0.023441287 -0.07113532 4287318848
-0.28255576 0.026057549 -0.076977268 4287521873
-0.28456715 0.028471494 -0.081228875 4287654998
-0.28749692 0.031242363 -0.087387264 4287716170
-0.29021886 0.0339977 -0.093117118 4288241994
-0.29178736 0.036387321 -0.096455924 4289229658
-0.30330005 -0.016917769 -0.1219017 4289561445
-0.30196109 -0.01512661 -0.11920245 4288968795
-0.3013235 -0.013290764 -0.11796349 4287979346
-0.3000119 -0.011537426 -0.11531928 4287714634
-0.29838505 -0.0098440824 -0.11201689 4287126087
-0.29516423 -0.0083808592 -0.10538948 4286463806
-0.2923606 -0.0069207409 -0.099629335 4286725158
-0.28963855 -0.0055005904 -0.094036981 4286857004
-0.2855325 -0.0043446925 -0.085554577 4286855976
-0.2838541 -0.0028671229 -0.082134783 4286986793
-0.28276786 -0.0013171873 -0.07994958 4287054391
-0.28197348 0.00026702197 -0.078372717 4287125073
-0.28146315 0.0018923255 -0.077388421 4287642668
-0.28068095 0.0034544053 -0.075835936 4287511082
-0.27990603 0.0050045224 -0.074297965 4287380527
-0.28132311 0.0070270714 -0.077339679 4287445554
-0.28054297 0.0085703731 -0.075790539 4287511857
-0.28004199 0.010167439 -0.074824423 4287576621
-0.27954417 0.011757214 -0.07386446 4287576109
-0.27904946 0.013339705 -0.072910577 4287511344
-0.27855775 0.014915039 -0.071962669 4287511856
-0.27833566 0.016557742 -0.071578488 4287446833
-0.2783809 0.018274954 -0.071753591 4287513139
-0.27869362 0.020074461 -0.07248877 4287447862
-0.27927661 0.0219649 -0.073790081 4287383869
-0.28013486 0.023955723 -0.075668529 4287587151
-0.28266469 0.026512574 -0.081048951 4287588950
-0.28526601 0.029144207 -0.086581662 4287584586
-0.28764617 0.031751178 -0.091653399 4287978309
-0.29008776 0.034427926 -0.096856073 4288703568
-0.30187976 -0.016921721 -0.1231927 4289627749
-0.30054963 -0.015130383 -0.12048544 4288837213
-0.29957625 -0.013327724 -0.11852804 4288180059
-0.2979438 -0.011612956 -0.11518212 4287715914
-0.2966674 -0.0098860105 -0.11258467 4286926143
-0.29347947 -0.0084243799 -0.10595967 4286659376
-0.29101387 -0.0069236183 -0.10085358 4286986020
-0.28921837 -0.0053706709 -0.097157434 4286921768
-0.28715968 -0.0038915551 -0.092905037 4287117607
-0.28370389 -0.0026813366 -0.085705362 4287051308
-0.28261089 -0.0011227278 -0.083484896 4286857017
-0.28209206 0.00052235601 -0.082474522 4287193175
-0.28157651 0.0021596674 -0.081470691 4287447087
-0.2807869 0.0037326931 -0.07988809 4287511340
-0.28194663 0.0057082768 -0.08241906 4287511083
-0.28171173 0.0073965797 -0.082007155 4287576369
-0.28147766 0.0090820733 -0.081596747 4287445807
-0.28124434 0.010764829 -0.081187859 4287511853
-0.28018385 0.012235961 -0.079031497 4287577136
-0.27968091 0.013834162 -0.078052267 4287577649
-0.27891007 0.015351354 -0.076506443 4287577905
-0.27841499 0.016932743 -0.075542934 4287512880
-0.27845967 0.018663175 -0.075720198 4287447602
-0.27904451 0.020558512 -0.077039853 4287316793
-0.27963302 0.022467958 -0.078367904 4287454026
-0.28077558 0.024567936 -0.080868855 4287523668
-0.28448418 0.027538868 -0.088801071 4287586126
-0.28686097 0.030131228 -0.093917891 4287716940
-0.28899699 0.032687522 -0.098527364 4287850068
-0.2905663 0.035083566 -0.10193881 4288705372
-0.30080459 -0.016898176 -0.12521799 4289234278
-0.29913792 -0.015134129 -0.12176865 4288442718
-0.29817086 -0.013331301 -0.11980554 4288115803
-0.29654938 -0.011616386 -0.11644966 4287526751
-0.29495531 -0.0099277971 -0.1131507 4286865233
-0.2921156 -0.0084274402 -0.10719949 4286663225
-0.29059497 -0.0067989728 -0.10405332 4286855978
-0.28879383 -0.0052395044 -0.10030865 4286789932
-0.2867291 -0.0037545427 -0.096000932 4286921004
-0.2835516 -0.0024932222 -0.089321353 4287051569
-0.28273657 -0.0008756746 -0.087671727 4286856763
-0.28221235 0.0007817219 -0.086641036 4287257939
-0.2814101 0.0023761305 -0.085017376 4287577392
-0.28089422 0.004015333 -0.08400356 4287577905
-0.28206286 0.0060083321 -0.086581156 4287446320
-0.28182504 0.0077095246 -0.086160302 4287511602
-0.28158802 0.0094078761 -0.085741006 4287511343
-0.28107184 0.011034991 -0.084725931 4287511341
-0.28028151 0.012583991 -0.083125353 4287577136
-0.27977353 0.014193618 -0.082126759 4287512113
-0.27926868 0.015795754 -0.081134535 4287446833
-0.27876705 0.017390503 -0.080148697 4287381808
-0.27881125 0.019137014 -0.080328427 4287382066
-0.27912819 0.02096865 -0.081091017 4287317306
-0.27999586 0.022980364 -0.083030984 4287324749
-0.28087166 0.02501338 -0.084989287 4287590485
-0.28345796 0.027633911 -0.090605587 4287979851
-0.28700733 0.030636698 -0.098284118 4288176969
-0.28825232 0.032899503 -0.10103704 4288310100
-0.2901268 0.035416439 -0.10513798 4289166690
-0.3017672 -0.018645141 -0.13153793 4289825898
-0.3000707 -0.016846837 -0.12799191 4289167202
-0.2987442 -0.015046407 -0.12523912 4288243286
-0.29777318 -0.013234559 -0.12324882 4287782988
-0.2961458 -0.01151153 -0.1198472 4287393367
-0.2945461 -0.009815095 -0.11650357 4287063121
-0.29169735 -0.0083087999 -0.11047307 4286859833
-0.29017168 -0.0066730529 -0.10728503 4286922289
-0.28805974 -0.0051522357 -0.10283456 4286725938
-0.2862941 -0.0036162259 -0.099127144 4286921522
-0.28339714 -0.0023027065 -0.092983633 4287052083
-0.28229043 -0.00072645926 -0.090690635 4287052859
-0.28176421 0.00093845557 -0.089646369 4287323215
-0.28124139 0.0025953311 -0.088608988 4287643187
-0.28270888 0.0046551814 -0.091858029 4287642928
-0.28246644 0.0063750148 -0.091424771 4287642156
-0.28251058 0.0081566218 -0.091608956 4287642927
-0.28226894 0.009873216 -0.091177262 4287511856
-0.28231317 0.011657027 -0.091361664 4287577391
-0.28150487 0.013225151 -0.089707866 4287577394
-0.28098494 0.014855641 -0.088675343 4287577907
-0.28018928 0.016401514 -0.087047592 4287447090
-0.2796776 0.018014375 -0.086031862 4287447089
-0.27972144 0.019782811 -0.086214684 4287447347
-0.27976531 0.021553747 -0.08639776 4287450429
-0.28064454 0.023590392 -0.088384725 4287522128
-0.28238353 0.025925484 -0.092229493 4287720533
-0.28503212 0.028601315 -0.098041072 4287914059
-0.28866938 0.031672303 -0.10599177 4288177229
-0.29087737 0.034310099 -0.11085702 4288837463
-0.30102837 -0.018599492 -0.13436776 4289562211
-0.29933146 -0.016795164 -0.13078551 4288969311
-0.29800451 -0.014988683 -0.12800458 4288110673
-0.29669595 -0.013204509 -0.12526236 4287516990
-0.29441473 -0.011551212 -0.12040713 4287320130
-0.29283139 -0.0098571684 -0.11706527 4287188283
-0.29095748 -0.0082300585 -0.11309068 4286988593
-0.28943193 -0.006589415 -0.10987122 4286921263
-0.28762561 -0.0050189039 -0.10604006 4286857521
-0.28585464 -0.0034765538 -0.10228407 4287052339
-0.28294986 -0.0021587973 -0.096061289 4287183154
-0.2824147 -0.00047305683 -0.09498883 4287053369
-0.28188303 0.0012044223 -0.093923464 4287390284
-0.28135473 0.0028737355 -0.092865072 4287578420
-0.28254491 0.0048922319 -0.095546022 4287642928
-0.28258845 0.0066856653 -0.095732249 4287708205
-0.2829212 0.0085476162 -0.096548401 4287643183
-0.28267568 0.010280153 -0.096105538 4287512112
-0.28243098 0.012009718 -0.095664345 4287577393
-0.28161478 0.013588775 -0.093977802 4287577393
-0.28108945 0.015231146 -0.092924446 4287577906
-0.28028613 0.016787551 -0.09126465 4287577906
-0.27949041 0.018331828 -0.089620724 4287512370
-0.28009224 0.020277672 -0.091023743 4287447605
-0.28041631 0.022151757 -0.091821715 4287385149
-0.28102401 0.024123982 -0.093238883 4287456078
-0.28512019 0.027252041 -0.1022697 4287721817
-0.28726119 0.029803967 -0.10703702 4287918168
-0.2900739 0.032633699 -0.11327323 4288247132
-0.29233071 0.035322789 -0.11829838 4289102179
-0.30099016 -0.018503077 -0.13876528 4289233506
-0.29893306 -0.016714973 -0.13435808 4288837212
-0.29760092 -0.014899429 -0.13153848 4288176206
-0.29628736 -0.013106458 -0.12875834 4287717961
-0.29301488 -0.011554648 -0.12167959 4287516995
-0.29176369 -0.0098216599 -0.11903282 4287251508
-0.29021242 -0.0081508122 -0.11572616 4287052844
-0.28868702 -0.0065051923 -0.11247483 4287051821
-0.28718695 -0.0048842514 -0.10927755 4286987310
-0.28541064 -0.0033354859 -0.10547218 4287182641
-0.28278938 -0.0019639637 -0.099808834 4287379500
-0.28196087 -0.00031999158 -0.098082125 4287053367
-0.28142715 0.0013651922 -0.097002588 4287654475
-0.28233582 0.0033297201 -0.099093579 4287644727
-0.28266925 0.0051933071 -0.09992069 4287708722
-0.28271222 0.0070013492 -0.10010929 4287708208
-0.28363317 0.00901361 -0.10222968 4287577648
-0.2839711 0.010906156 -0.10306808 4287577392
-0.28401449 0.012733587 -0.10325872 4287643186
-0.28317651 0.014334751 -0.10150909 4287643185
-0.2823467 0.015923042 -0.099776559 4287643697
-0.28123832 0.017418545 -0.097429894 4287643954
-0.28042707 0.018979566 -0.095736593 4287578419
-0.28075379 0.02086705 -0.096550234 4287448119
-0.28079674 0.022674862 -0.09673883 4287384378
-0.28112471 0.024576368 -0.097555928 4287452995
-0.28466019 0.027544029 -0.10544675 4287653199
-0.28620023 0.02990628 -0.1089399 4287984215
-0.28900078 0.032742411 -0.1152158 4288511584
-0.29252934 0.035898849 -0.12310136 4289365353
-0.30095115 -0.018405247 -0.14322604 4288970080
-0.29922876 -0.016576733 -0.13951604 4288835929
-0.29753676 -0.014777671 -0.13587168 4288177233
-0.29621345 -0.012972864 -0.13304272 4287788636
-0.29259112 -0.01144911 -0.12511627 4287453774
-0.29101327 -0.0097469958 -0.12171909 4287251508
-0.28946212 -0.0080709988 -0.11837954 4287118379
-0.28824857 -0.0063763442 -0.11578734 4287052076
-0.28643715 -0.0047946479 -0.11186732 4287117101
-0.28496206 -0.0031930478 -0.10869196 4287182383
-0.28380784 -0.0015641983 -0.10622741 4287445289
-0.28179258 -0.00011282305 -0.10184985 4287184184
-0.28125504 0.0015826769 -0.10075203 4287786832
-0.28187659 0.0035025086 -0.10222867 4287645500
-0.28250223 0.0054373052 -0.10371511 4287708981
-0.28254452 0.007257211 -0.10390581 4287708467
-0.28376594 0.0093525201 -0.10671796 4287708721
-0.28410587 0.011261217 -0.10757135 4287642926
-0.28414866 0.013103718 -0.10776442 4287643441
-0.28389418 0.014871051 -0.10729624 4287708978
-0.28364056 0.016635211 -0.10682976 4287774512
-0.282215 0.018065829 -0.10375474 4287840303
-0.28167665 0.019728292 -0.10265347 4287643697
-0.28143007 0.02146969 -0.10220133 4287513654
-0.2820518 0.023478737 -0.10368317 4287514680
-0.28209448 0.025315547 -0.10387566 4287580985
-0.28449336 0.027937813 -0.10931887 4287647806
-0.28573835 0.030215343 -0.11219276 4288045388
-0.28792387 0.032851487 -0.11716507 4288706651
-0.2933847 0.036721788 -0.129444 4289694056
-0.30091137 -0.018306039 -0.14775138 4288772187
-0.29917598 -0.01646517 -0.14397536 4288638037
-0.29781881 -0.014622069 -0.14104424 4288112983
-0.29579693 -0.012872355 -0.13662317 4287659109
-0.29216272 -0.011342508 -0.12858872 4287256911
-0.2905795 -0.0096324319 -0.12514535 4287184946
-0.28902316 -0.0079487292 -0.12176067 4287053102
-0.28749305 -0.006290718 -0.11843315 4286987052
-0.28598845 -0.0046577463 -0.1151613 4287117614
-0.28450882 -0.0030491992 -0.11194386 4287248686
-0.28305352 -0.001464471 -0.10877945 4287380011
-0.28133014 4.3739947e-05 -0.10501206 4287119163
-0.28166321 0.0019153111 -0.10585807 4287789145
-0.28141269 0.0036769365 -0.10539448 4287515460
-0.28203893 0.0056219203 -0.10689938 4287709495
-0.28237444 0.0075164158 -0.10775209 4287840309
-0.28450134 0.0098370388 -0.11262958 4287905329
-0.2869871 0.012289724 -0.11831576 4287773998
-0.28702992 0.014175529 -0.11851425 4287643697
-0.28614846 0.015820375 -0.11663497 4287643698
-0.28588504 0.017618289 -0.1161446 4287839534
-0.28501523 0.019240467 -0.11429004 4287905068
-0.28325915 0.020586191 -0.11044071 4287708976
-0.28212145 0.022086024 -0.1079812 4287513141
-0.28216347 0.023935292 -0.10817586 4287579704
-0.28191286 0.025692176 -0.10771176 4287712058
-0.28432414 0.028336795 -0.11324217 4287714370
-0.28527164 0.030527452 -0.11547808 4288112722
-0.28777251 0.033291023 -0.12121502 4288905574
-0.30123317 -0.018178914 -0.15316236 4288706140
-0.29912221 -0.016351966 -0.14849913 4288309334
-0.29740494 -0.014528932 -0.14472434 4287850324
-0.29606181 -0.012699985 -0.14179441 4287592032
-0.29205924 -0.011197438 -0.13284342 4287322183
-0.29079014 -0.0094366148 -0.13007683 4287184434
-0.28889808 -0.0077826809 -0.12589802 4287053617
-0.28704438 -0.0061596944 -0.12180423 4286987311
-0.28553504 -0.004519477 -0.1184886 4287118380
-0.28374878 -0.0029533876 -0.11454374 4287380268
-0.28259116 -0.00131241 -0.11202212 4287380269
-0.28086299 0.00020183486 -0.10820545 4287120444
-0.28119594 0.0020829828 -0.1090617 4287660386
-0.28094405 0.0038530894 -0.1085915 4287451980
-0.28157085 0.0058083409 -0.11011512 4287775544
-0.28220186 0.007779019 -0.11164901 4287906102
-0.28343529 0.0099057639 -0.1145513 4287905329
-0.28683928 0.012591387 -0.12238406 4287774256
-0.28688142 0.014490042 -0.1225848 4287708978
-0.28630275 0.01622651 -0.12137517 4287643697
-0.28665486 0.018209603 -0.12228031 4287774255
-0.28577003 0.019847963 -0.12037416 4287774512
-0.28459007 0.021382568 -0.11779612 4287644467
-0.28312668 0.022807937 -0.11457232 4287448373
-0.28227678 0.02439934 -0.11274242 4287449143
-0.28202292 0.026169978 -0.11226791 4287581756
-0.28415245 0.028741062 -0.11721762 4287847495
-0.28510445 0.030948455 -0.11948918 4288442969
-0.30119434 -0.018076399 -0.15783578 4288444257
-0.29906744 -0.016237181 -0.15308876 4288178521
-0.29733726 -0.014401908 -0.14924656 4287651151
-0.295984 -0.012560649 -0.14626427 4287325012
-0.2919541 -0.011050367 -0.13715789 4287318839
-0.29034877 -0.0093188137 -0.13359442 4287184945
-0.28845051 -0.0076574553 -0.12935883 4287052849
-0.28659099 -0.0060273432 -0.12520982 4286987057
-0.28507686 -0.0043798033 -0.12184969 4287118635
-0.28328526 -0.0028071397 -0.11785238 4287315502
-0.28182614 -0.0012110315 -0.11461473 4287380786
-0.28039098 0.00036149033 -0.11143044 4287319872
-0.28072387 0.002252301 -0.11229707 4287529572
-0.28047055 0.0040309811 -0.11182014 4287585620
-0.28109798 0.0059966072 -0.11336277 4287906103
-0.28202686 0.0080450736 -0.11559772 4287970610
-0.28326634 0.010187916 -0.11854652 4287839281
-0.28731781 0.013052367 -0.12795025 4287774258
-0.28767538 0.015051808 -0.12887926 4287708466
-0.28677222 0.016723184 -0.12691407 4287708722
-0.2868138 0.018640241 -0.12711766 4287643443
-0.28654248 0.020469826 -0.12660255 4287578420
-0.28472787 0.021835046 -0.12254103 4287513652
-0.28355202 0.023361791 -0.11994556 4287579700
-0.28299037 0.025062095 -0.11876097 4287580726
-0.2818377 0.026557798 -0.1162166 4287582014
-0.28277242 0.028740875 -0.11847249 4287914064
-0.30334589 -0.019862715 -0.16752008 4288575327
-0.30152369 -0.017945033 -0.16343075 4288374354
-0.29937261 -0.016090252 -0.15857972 4287977802
-0.29797888 -0.014205876 -0.15547603 4287649867
-0.29625446 -0.012382672 -0.15160662 4287322703
-0.29184726 -0.010901198 -0.14153334 4287251510
-0.29023063 -0.0091587361 -0.13790768 4287054643
-0.2883195 -0.0074874158 -0.13359906 4286922546
-0.28613269 -0.0058935964 -0.1286505 4286987570
-0.28461382 -0.0042387135 -0.12524509 4287184427
-0.28281689 -0.00265942 -0.12119446 4287511339
-0.28165203 -0.0010037296 -0.11860521 4287576885
-0.281095 0.00074330776 -0.11742232 4287849290
-0.28024694 0.002423306 -0.11556467 4287724898
-0.28028604 0.0042715957 -0.11576184 4287653210
-0.28091609 0.0062511866 -0.11732865 4287841592
-0.28184929 0.0083146915 -0.11959918 4287971632
-0.28309488 0.010473848 -0.12259537 4287839793
-0.28653699 0.013207098 -0.13068795 4287708721
-0.28657773 0.015131966 -0.13089329 4287642931
-0.28693429 0.017144658 -0.13183165 4287708213
-0.28697523 0.019078238 -0.13203789 4287578164
-0.28638548 0.020831428 -0.13077995 4287447605
-0.28517744 0.022388255 -0.12808536 4287382582
-0.28337562 0.023737034 -0.12401014 4287514422
-0.28250834 0.025350606 -0.12210435 4287580472
-0.28164977 0.026950784 -0.12021783 4287713599
-0.28198847 0.028944923 -0.12111402 4288111181
-0.30370256 -0.019745879 -0.17331119 4288772699
-0.30223343 -0.017783254 -0.17000449 4288506190
-0.30041718 -0.015878292 -0.16588578 4287781193
-0.29899672 -0.013971024 -0.16268922 4287452490
-0.29723993 -0.012126544 -0.15870552 4287387466
-0.29207587 -0.010710883 -0.14675885 4287382067
-0.29011065 -0.0089963991 -0.14228183 4287053618
-0.28818646 -0.0073149973 -0.13789852 4286922290
-0.28566945 -0.0057585076 -0.13212679 4287052845
-0.28414577 -0.004096176 -0.12867534 4287249968
-0.28234357 -0.0025102054 -0.12457053 4287512113
-0.28117508 -0.00084706576 -0.12194657 4287317050
-0.28121364 0.0010208497 -0.12214669 4287788377
-0.2800605 0.0026546998 -0.11955678 4287593830
-0.2798034 0.0044536432 -0.119064 4287653983
-0.28043398 0.0064438316 -0.12065056 4287841849
-0.28136846 0.0085188318 -0.12295002 4287840304
-0.28261617 0.010690379 -0.12598482 4287774513
-0.28543627 0.013284057 -0.1327077 4287643185
-0.2861059 0.015376879 -0.1343912 4287578419
-0.2861459 0.017314516 -0.13459882 4287643444
-0.28618598 0.019254886 -0.13480669 4287577651
-0.28591046 0.021105668 -0.13427411 4287512628
-0.28469849 0.022668699 -0.13154291 4287513910
-0.28350294 0.024213338 -0.12884898 4287514679
-0.28232351 0.025739938 -0.12619145 4287581243
-0.28115982 0.027248882 -0.12356961 4287847752
-0.30291709 -0.019701296 -0.17650364 4288772443
-0.30144727 -0.017731469 -0.17316154 4288375892
-0.29963052 -0.01581973 -0.16899911 4287849044
-0.29820958 -0.013905715 -0.16576867 4287517257
-0.29645252 -0.01205489 -0.16174315 4287451716
-0.29162827 -0.010596509 -0.1504723 4287382324
-0.2899887 -0.0088317385 -0.14671811 4287119667
-0.28772587 -0.0071849111 -0.14148942 4286987825
-0.28551781 -0.0055751898 -0.13638744 4287118382
-0.28398404 -0.0039028949 -0.13287686 4287250225
-0.28186524 -0.0023594771 -0.12798104 4287381044
-0.28159916 -0.00052644213 -0.12746496 4287385925
-0.2807309 0.0011886648 -0.12552385 4287594084
-0.27927807 0.0027704134 -0.12219847 4287659623
-0.27931565 0.004637504 -0.12239939 4287720544
-0.27994683 0.006638437 -0.12400595 4287907642
-0.28058228 0.0086554624 -0.12562354 4287775027
-0.28122205 0.010688706 -0.1272523 4287775026
-0.28433162 0.013361307 -0.13473463 4287643698
-0.2846835 0.015375447 -0.13568445 4287577907
-0.28472251 0.017313262 -0.13589297 4287578676
-0.28507578 0.019343097 -0.13684694 4287513140
-0.28511497 0.021289734 -0.13705641 4287513396
-0.28421441 0.022952039 -0.13503613 4287448631
-0.28332311 0.02460012 -0.13303675 4287449401
-0.2824409 0.026234172 -0.13105798 4287582013
-0.28126571 0.027752627 -0.12838238 4287978568
-0.3017455 -0.019681189 -0.17881493 4288836954
-0.30028066 -0.01770764 -0.17545007 4288375123
-0.29883775 -0.015760729 -0.17213589 4288180054
-0.29741636 -0.01383989 -0.16887115 4287915600
-0.29530355 -0.01202082 -0.16395487 4287650630
-0.29117566 -0.010480873 -0.15422593 4287382324
-0.28953034 -0.0087075913 -0.15041927 4287119924
-0.28758657 -0.0070082382 -0.14589785 4287053874
-0.28504527 -0.005436827 -0.13994667 4287184687
-0.28350669 -0.0037569106 -0.13638823 4287250225
-0.28138176 -0.0022072338 -0.13142654 4287317818
-0.28111422 -0.00036495295 -0.13090292 4287459158
-0.28024301 0.0013581729 -0.12893544 4287528806
-0.27908283 0.0030064678 -0.1262757 4287594342
-0.27882284 0.0048231939 -0.1257685 4287655264
-0.27945456 0.0068350094 -0.12739539 4287907897
-0.28009057 0.0088630151 -0.12903349 4287775283
-0.28073096 0.010907464 -0.13068298 4287905841
-0.28322291 0.013438831 -0.13676871 4287774770
-0.28357249 0.015456703 -0.13772453 4287578420
-0.28361058 0.017397996 -0.13793434 4287513141
-0.28396153 0.019431628 -0.13889445 4287513140
-0.28431377 0.021475067 -0.13985817 4287447861
-0.28372514 0.023238279 -0.13856556 4287448632
-0.2834515 0.025091188 -0.1380281 4287515195
-0.28286889 0.026838504 -0.13674898 4287779905
-0.28384018 0.029103359 -0.13919947 4288308301
-0.30056915 -0.019661007 -0.18113519 4289034330
-0.29910937 -0.017683724 -0.1777475 4288439632
-0.29803881 -0.015701316 -0.17529644 4288179540
-0.296617 -0.013773606 -0.171997 4287984217
-0.29485959 -0.011910055 -0.16788624 4287849036
-0.29071793 -0.010364018 -0.15802044 4287447605
-0.28906685 -0.0085821031 -0.15416035 4287185972
-0.28678939 -0.0069206022 -0.14878604 4287185203
-0.28456765 -0.00529698 -0.14354338 4287250481
-0.28302416 -0.0036094079 -0.13993628 4287251764
-0.28089315 -0.0020533984 -0.1349076 4287454790
-0.2809296 -0.00014618839 -0.13511461 4287463522
-0.28005242 0.0015876564 -0.13311318 4287397734
-0.27888474 0.0032456878 -0.13040821 4287594342
-0.27862236 0.005074434 -0.12989151 4287589216
-0.2789571 0.0070335427 -0.13081938 4287907641
-0.27959365 0.0090727108 -0.13247833 4287840562
-0.27993184 0.011053953 -0.13341588 4287906098
-0.28149301 0.013358214 -0.13731544 4287775027
-0.28183803 0.01537265 -0.13827153 4287643956
-0.28218427 0.017396716 -0.13923115 4287578164
-0.28253177 0.019430524 -0.1401944 4287512883
-0.28288054 0.021474104 -0.14116129 4287448374
-0.28291792 0.023430482 -0.14137365 4287515450
-0.28326803 0.025490012 -0.14234482 4287713855
-0.28268108 0.027248144 -0.14104301 4287979081
-0.29084924 0.031994753 -0.16098835 4288507733
-0.29830471 -0.017631164 -0.18095842 4288439632
-0.29723358 -0.015641423 -0.17848098 4288044364
-0.29581141 -0.013706789 -0.1751464 4287980624
-0.29405391 -0.011836802 -0.17099226 4287846728
-0.29059744 -0.010204994 -0.16269185 4287513397
-0.28826287 -0.0084988531 -0.15712415 4287186227
-0.28631333 -0.0067863278 -0.152493 4287185716
-0.28408471 -0.0051556658 -0.14717813 4287186487
-0.28253639 -0.0034603933 -0.14352155 4287321920
-0.28132418 -0.0017382009 -0.1406839 4287526232
-0.28043491 1.9182475e-05 -0.13863374 4287463525
-0.27955478 0.0017612511 -0.13660492 4287397735
-0.27868369 0.0034881863 -0.13459708 4287660390
-0.2784189 0.0053290622 -0.13407077 4287653467
-0.27875456 0.0073021068 -0.13501288 4287841850
-0.27909145 0.009284554 -0.13595857 4287906098
-0.27912706 0.011201462 -0.13616756 4287906098
-0.28007334 0.013356647 -0.13860615 4287709235
-0.28041497 0.015371245 -0.13956535 4287709235
-0.28045097 0.017309479 -0.13977666 4287643699
-0.28110179 0.019429415 -0.14149456 4287513653
-0.28175721 0.021566765 -0.14322464 4287385148
-0.28179362 0.023526676 -0.14343832 4287452996
-0.28403214 0.026201924 -0.14905213 4287782217
-0.28897509 0.029832175 -0.16130303 4288046417
-0.29105073 0.032581784 -0.16652559 4288574555
-0.29712254 -0.01760699 -0.18327983 4288507477
-0.29605502 -0.01561347 -0.18078555 4288042050
-0.29499957 -0.013639508 -0.17831968 4287908667
-0.29324198 -0.011763024 -0.17412157 4287711033
-0.2897867 -0.010126454 -0.16573469 4287448886
-0.28778785 -0.0083711315 -0.16093573 4287186487
-0.28583193 -0.0066506169 -0.15623987 4287187516
-0.28327659 -0.0050616539 -0.15006208 4287191621
-0.28141558 -0.0034123107 -0.145595 4287393877
-0.28082716 -0.0015795453 -0.14426795 4287463013
-0.27993488 0.00018629362 -0.14218955 4287528549
-0.27905181 0.0019366031 -0.14013286 4287528807
-0.27847973 0.0037339823 -0.1388436 4287857253
-0.2779116 0.0055218078 -0.13756345 4287781967
-0.27824712 0.0075054183 -0.13851729 4287775543
-0.27858385 0.0094985403 -0.13947478 4287775026
-0.27892178 0.011501228 -0.14043583 4287905840
-0.27895671 0.013434162 -0.14064746 4287708978
-0.27899167 0.01536982 -0.1408594 4287578163
-0.27902669 0.017308231 -0.14107165 4287512884
-0.27997813 0.019518254 -0.14355423 4287581243
-0.28062978 0.02165976 -0.14529534 4287455308
-0.28159797 0.023917247 -0.14782219 4287326037
-0.28644812 0.027464176 -0.15997516 4287587412
-0.28848407 0.030170482 -0.16515569 4288178261
-0.2909095 0.033059038 -0.1713057 4288902748
-0.29593563 -0.017582696 -0.18561023 4288839003
-0.29523724 -0.015552902 -0.1840094 4288044873
-0.29418138 -0.013571717 -0.18151702 4287843900
-0.29242378 -0.011688705 -0.17727442 4287581244
-0.28931305 -0.010005714 -0.16965584 4287254079
-0.28697157 -0.0082863616 -0.16395135 4287058245
-0.28534511 -0.0065134778 -0.1600273 4287258191
-0.28246248 -0.004967011 -0.15296656 4287330908
-0.28091553 -0.003261212 -0.14923553 4287266405
-0.28032476 -0.0014192031 -0.14788976 4287397734
-0.27942941 0.00035512415 -0.14578258 4287594087
-0.27854341 0.0021137998 -0.14369754 4287528809
-0.27827269 0.0039832066 -0.1431489 4287987044
