# .PCD v0.7 - Point Cloud Data file format
VERSION 0.7
FIELDS x y z rgba
SIZE 4 4 4 4
TYPE F F F U
COUNT 1 1 1 1
WIDTH 1004
HEIGHT 1
VIEWPOINT 0 0 0 1 0 0 0
POINTS 1004
DATA ascii
-0.32227328 0.036247782 -0.026304269 4292598705
-0.32169601 0.037753277 -0.02548652 4293971881
-0.32112226 0.039252289 -0.024673795 4294564262
-0.32055199 0.040744849 -0.0238661 4294432680
-0.32030687 0.042341616 -0.023536289 4293381543
-0.32006261 0.043936122 -0.023207674 4292464556
-0.32078484 0.045875173 -0.024300361 4291679410
-0.32216415 0.048067562 -0.026359571 4291940525
-0.32322919 0.050164737 -0.027957005 4292003232
-0.32705599 0.022564137 -0.036072705 4291022748
-0.32644448 0.024135506 -0.035198931 4291546781
-0.32583684 0.025699697 -0.034330696 4291873702
-0.32557344 0.027348286 -0.033972606 4292334504
-0.32395896 0.02862077 -0.031611543 4290496424
-0.32336643 0.030159857 -0.030765196 4292204467
-0.3227776 0.031692136 -0.029924165 4293848532
-0.3221924 0.033217654 -0.029088376 4293782982
-0.32128286 0.034635764 -0.02777148 4293388204
-0.32103279 0.036248688 -0.027432378 4293651381
-0.32013404 0.037649717 -0.026131071 4294567100
-0.31956491 0.03914696 -0.025318477 4294962364
-0.3189992 0.040637769 -0.024510834 4294831292
-0.31875587 0.042232506 -0.02418139 4293910966
-0.3188324 0.043937705 -0.02432652 4293122738
-0.31955016 0.045876879 -0.025423311 4292465582
-0.32190195 0.048431244 -0.028945623 4292265901
-0.3229697 0.05053962 -0.030562686 4292071853
-0.32438233 0.052798353 -0.032691982 4292007591
-0.32896456 0.016357692 -0.041846659 4291403140
-0.3276341 0.017805779 -0.039891582 4289702543
-0.32736242 0.019479856 -0.039519157 4288647544
-0.32674408 0.021068042 -0.038628373 4290754440
-0.32612973 0.022648932 -0.0377433 4291479705
-0.32586274 0.024310051 -0.037377603 4291809192
-0.32559669 0.025968559 -0.037013289 4292006058
-0.32498989 0.02753214 -0.036139183 4292400297
-0.32371065 0.028900726 -0.034258924 4290823076
-0.32311529 0.030446123 -0.033401512 4290760114
-0.32252368 0.031984605 -0.032549545 4292731325
-0.32193574 0.033516262 -0.031702921 4293323196
-0.32102239 0.034939561 -0.03036911 4292861362
-0.31979209 0.036249571 -0.028560672 4294241981
-0.31857651 0.037546497 -0.026773877 4294900164
-0.31801194 0.039041955 -0.025961386 4294966213
-0.31745079 0.040531021 -0.025153879 4294965186
-0.31720921 0.042123683 -0.024824768 4294702270
-0.31760198 0.043939259 -0.025445543 4294307001
-0.31831521 0.045878567 -0.026546458 4293649077
-0.32065326 0.048433106 -0.030081317 4292924084
-0.32237563 0.050792072 -0.03269469 4291941039
-0.3227855 0.052671701 -0.033342209 4292141228
-0.32453996 0.055089381 -0.036004517 4292468650
-0.3273257 0.016280368 -0.042486448 4290940523
-0.32600659 0.017726829 -0.040531293 4288782472
-0.32573688 0.01939857 -0.040159233 4288845437
-0.32546815 0.021067601 -0.039788537 4290622610
-0.32485682 0.022648627 -0.038900733 4291609760
-0.32459089 0.024309872 -0.038534086 4291875243
-0.32432589 0.025968516 -0.038168829 4291941291
-0.32406181 0.027624523 -0.037804846 4292399786
-0.32278538 0.028994784 -0.03591238 4293319080
-0.32219106 0.030542372 -0.035049517 4291745719
-0.3216005 0.032083023 -0.034192089 4292333489
-0.32068354 0.033516921 -0.032841645 4293452727
-0.31944877 0.03483903 -0.031010859 4292927666
-0.31790736 0.036045469 -0.028716529 4292661422
-0.31702343 0.03744356 -0.027414998 4292332973
-0.31614736 0.038831692 -0.026125129 4292855468
-0.31590673 0.04042457 -0.025795178 4292853919
-0.31566691 0.042015176 -0.025466412 4292198301
-0.31605598 0.043828078 -0.026088044 4292005289
-0.31708011 0.045880284 -0.027669771 4292532916
-0.31908017 0.04831399 -0.030727146 4293387192
-0.32111645 0.050794102 -0.033839919 4293189813
-0.32218704 0.052931897 -0.035493277 4292402099
-0.32360396 0.055225186 -0.037670642 4292929722
-0.32334521 0.056864053 -0.03731437 4292665523
-0.32666436 0.014668647 -0.044568941 4290875771
-0.32534423 0.016127275 -0.042595372 4291268968
-0.32438385 0.017648125 -0.041169155 4289174397
-0.32411623 0.019317519 -0.040797506 4289437565
-0.32384953 0.020984266 -0.040427268 4291280532
-0.32324317 0.022563245 -0.039539646 4291741603
-0.32297927 0.024222208 -0.039173447 4291743402
-0.32305494 0.025968473 -0.039324529 4291939497
-0.3227919 0.027624639 -0.038959622 4292400042
-0.32185712 0.029089134 -0.037571095 4293320625
-0.32126385 0.030638896 -0.036702704 4292864451
-0.32034329 0.03208353 -0.035335343 4292267689
-0.31975925 0.033617478 -0.034480624 4292731825
-0.318203 0.03483979 -0.032143757 4293652411
-0.31666997 0.036046375 -0.029841818 4291477931
-0.31547469 0.037340928 -0.028054357 4291940001
-0.31460589 0.038727619 -0.026764385 4291739836
-0.31436703 0.040318437 -0.026434766 4291014047
-0.31412899 0.041907001 -0.026106386 4289831563
-0.31451431 0.043717202 -0.026728811 4289112466
-0.3152146 0.045650434 -0.02783189 4289902235
-0.31719121 0.048074987 -0.030882454 4291480486
-0.31855384 0.050296664 -0.032996811 4292205491
-0.31862926 0.052037675 -0.033147436 4292795321
-0.31870484 0.053781174 -0.033298265 4294175680
-0.31878048 0.055527147 -0.033449307 4293650367
-0.32537571 0.01466766 -0.045740627 4290408545
-0.32406268 0.01612643 -0.043760605 4291731050
-0.32310736 0.017647397 -0.042329803 4289567354
-0.32284078 0.019316947 -0.041957214 4289109636
-0.32223564 0.020901149 -0.041064169 4291087012
-0.32197183 0.022562908 -0.040695641 4291610274
-0.32170898 0.024222035 -0.040328518 4291479719
-0.32178378 0.025968453 -0.040480413 4291873707
-0.32152179 0.02762473 -0.040114567 4292202924
-0.32092583 0.029183745 -0.039235041 4292598193
-0.32033357 0.030735731 -0.038361065 4293979325
-0.31941494 0.032182243 -0.036984902 4292530604
-0.31850475 0.033618115 -0.035621423 4292662187
-0.31727946 0.034941889 -0.03377289 4292267948
-0.3154324 0.036047284 -0.030967291 4290298007
-0.31424356 0.037341952 -0.029173976 4291548574
-0.31337935 0.038728774 -0.027879862 4291089612
-0.31314141 0.040319718 -0.027549418 4289969851
-0.31290427 0.041908432 -0.027220218 4288653209
-0.31297699 0.043606654 -0.027367922 4287929994
-0.31335986 0.045421928 -0.027993223 4289833356
-0.31499758 0.047718208 -0.030550875 4290886299
-0.3160215 0.049805176 -0.032163948 4291020455
-0.31641436 0.051661357 -0.032805413 4293123248
-0.31712931 0.053654328 -0.033943128 4294899389
-0.31720394 0.055397846 -0.034094792 4293782975
-0.32270676 0.014372231 -0.044772696 4289748564
-0.32175669 0.015899006 -0.043337826 4291729765
-0.32081553 0.017414158 -0.041916426 4289632633
-0.32021746 0.018997043 -0.041026868 4288846728
-0.31995657 0.0206543 -0.040660143 4290499763
-0.31969661 0.022308948 -0.040294766 4291150498
-0.31977016 0.024047706 -0.04044681 4291544739
-0.31951109 0.025699543 -0.040082768 4291873447
-0.31958476 0.027440542 -0.040235005 4291940267
-0.31932655 0.029089602 -0.039872255 4292335279
-0.31873921 0.030639654 -0.038998507 4293715633
-0.31815547 0.032182753 -0.038130227 4292924846
-0.31725007 0.033618771 -0.036762401 4292461986
-0.31603143 0.034942653 -0.034907844 4290160013
-0.31451055 0.036150541 -0.032583524 4288784776
-0.31301221 0.037342988 -0.030293783 4289704086
-0.31246224 0.038835175 -0.029476514 4290032289
-0.31222442 0.04042846 -0.029144062 4289903271
-0.31137219 0.041800566 -0.027856998 4289966238
-0.31144395 0.043496456 -0.028005296 4289110159
-0.31182319 0.045309011 -0.028631452 4291604879
-0.31251287 0.047246788 -0.029740307 4292658598
-0.31289557 0.049077772 -0.030372201 4292003242
-0.31327945 0.050916608 -0.031006161 4293516205
-0.31366462 0.052763328 -0.031642236 4294310078
-0.3137376 0.054488979 -0.031793147 4293782202
-0.31381071 0.056217093 -0.03194426 4292727992
-0.31388393 0.057947662 -0.032095589 4292729535
-0.31427097 0.059817422 -0.032735087 4293780154
-0.3143445 0.06155555 -0.03288709 4293255607
-0.32007051 0.014080442 -0.043816887 4289222477
-0.31913757 0.015599347 -0.04239605 4290875750
-0.31854457 0.017183039 -0.041507006 4289504644
-0.31828567 0.018838242 -0.041140724 4288912006
-0.31802765 0.020490849 -0.040775813 4290104241
-0.31810012 0.022224607 -0.040928222 4290557849
-0.31784299 0.023874417 -0.040564589 4291214748
-0.31791556 0.02561043 -0.040717207 4291741858
-0.31798822 0.027348906 -0.040870041 4291940264
-0.31806096 0.029089831 -0.041023102 4292466348
-0.31747654 0.030640034 -0.040146697 4292532911
-0.31722203 0.032281775 -0.039786946 4293712556
-0.31631863 0.033719648 -0.038410354 4292332204
-0.31510285 0.035045058 -0.036543921 4289369989
-0.31390172 0.03635706 -0.034700006 4288387718
-0.31240258 0.03755166 -0.032388575 4288650127
-0.31154221 0.038941912 -0.031078039 4288978055
-0.31099659 0.040429767 -0.030260699 4289769362
-0.31045428 0.041911282 -0.02944839 4291674786
-0.31021979 0.043498009 -0.029118637 4292198302
-0.31059635 0.045310713 -0.029747238 4292588170
-0.31128156 0.047248621 -0.030860187 4292195731
-0.31073883 0.048719868 -0.030046951 4292133797
-0.31081021 0.050428096 -0.030197132 4293515438
-0.31118858 0.052263398 -0.03082905 4293846717
-0.31126028 0.053979032 -0.03097987 4294368956
-0.31133208 0.055697124 -0.031130923 4294828234
-0.31140399 0.057417661 -0.031282179 4294767325
-0.31147599 0.059140675 -0.031433672 4294966237
-0.31216565 0.061141886 -0.032554973 4294834133
-0.31192875 0.062734365 -0.032221589 4293847230
-0.39461672 0.028115172 -0.16466577 4290350970
-0.3947137 0.030464649 -0.16487344 4288827718
-0.39481083 0.032817401 -0.16508138 4289494113
-0.39490807 0.035173491 -0.16528961 4289243791
-0.39500546 0.037532888 -0.16549814 4289042052
-0.39510301 0.039895628 -0.16570696 4290692263
-0.39520067 0.042261664 -0.16591607 4290161808
-0.39529848 0.044631056 -0.16612549 4290294162
-0.39539641 0.047003806 -0.1663352 4291215517
-0.39549449 0.049379919 -0.1665452 4291939494
-0.39559272 0.051759388 -0.16675551 4292465835
-0.39569107 0.054142211 -0.1669661 4291086512
-0.39578959 0.05652843 -0.16717699 4293649590
-0.31410003 0.033420488 -0.038032446 4291418564
-0.31321794 0.03484289 -0.036677115 4289044366
-0.3120307 0.036152344 -0.034838699 4288452996
-0.31024122 0.03724169 -0.032046974 4288322699
-0.3100045 0.038837515 -0.031711649 4288520075
-0.30946332 0.040323604 -0.030894434 4289374866
-0.30892542 0.04180342 -0.030082248 4291149213
-0.30869266 0.043388106 -0.029752869 4293316510
-0.30876267 0.045084208 -0.029902775 4292389762
-0.30853066 0.04666663 -0.029574586 4289498485
-0.30860078 0.04836509 -0.029724708 4290818189
-0.308671 0.050065983 -0.029875023 4293514926
-0.30904371 0.051892824 -0.030504545 4293778884
-0.30911422 0.053601064 -0.030655516 4294697680
-0.30918485 0.055311766 -0.030806707 4294966250
-0.30925554 0.057024911 -0.030958116 4294967287
-0.30932635 0.058740497 -0.03110975 4294967288
-0.30970111 0.060595024 -0.031743087 4294967284
-0.30977222 0.06231809 -0.031895384 4294769634
-0.31014839 0.06418553 -0.032531239 4293057989
-0.31449977 0.011720556 -0.041271497 4289952618
-0.31424657 0.013367028 -0.04090881 4288433475
-0.31399417 0.015010885 -0.040547397 4288570970
-0.31374264 0.016652197 -0.040187314 4289896842
-0.31317237 0.018213857 -0.03931886 4289238402
-0.31324223 0.019927155 -0.03947109 4292069786
-0.31331217 0.021642864 -0.039623525 4290290059
-0.3130632 0.023276372 -0.039267324 4289176457
-0.31313324 0.024994336 -0.039419953 4290032019
-0.31256786 0.026535921 -0.038558785 4291150240
-0.31232142 0.028161997 -0.038206425 4291415203
-0.31144747 0.029598713 -0.036852509 4290822572
-0.31183109 0.031406812 -0.037505545 4293388483
-0.31158718 0.033025574 -0.037156977 4291087028
-0.31103194 0.034541536 -0.036311332 4289109382
-0.30986208 0.035847086 -0.034484059 4288321410
-0.30870607 0.037139669 -0.032678541 4289437062
-0.30847111 0.038733419 -0.032343559 4289699718
-0.30793437 0.040217783 -0.031526539 4289307529
-0.30740085 0.041695867 -0.030714445 4289702031
-0.3071698 0.043278556 -0.030385448 4291476627
-0.30723882 0.044972289 -0.03053594 4290815362
-0.30730796 0.046668455 -0.030686647 4288053109
-0.30707768 0.048248839 -0.030358801 4290160521
-0.30714691 0.049947347 -0.030509716 4293975465
-0.30751598 0.051771518 -0.031140044 4293651650
-0.30758551 0.05347741 -0.031291623 4294442199
-0.30765516 0.055185743 -0.031443406 4294967278
-0.30772489 0.056896519 -0.031595401 4294967289
-0.30779475 0.058609772 -0.031747617 4294967295
-0.30816579 0.060461514 -0.032381769 4294967295
-0.30823594 0.062182181 -0.032534651 4294967291
-0.30830619 0.063905306 -0.032687746 4294571485
-0.31196538 0.011450429 -0.040355437 4289818973
-0.31171662 0.013087492 -0.039997108 4288301376
-0.31146872 0.014722009 -0.039640065 4288173645
-0.31090689 0.01628015 -0.038777761 4290222966
-0.31034848 0.017831387 -0.037920821 4289110663
-0.31041694 0.019531965 -0.038072724 4292068240
-0.31017321 0.021154126 -0.037722081 4290097043
-0.31024176 0.02285696 -0.037874185 4288453763
-0.31031039 0.024562199 -0.038026482 4288782471
-0.31006747 0.026181659 -0.037677091 4289703568
-0.30982542 0.027798679 -0.037329007 4289967507
-0.30896693 0.029228609 -0.035987854 4290490782
-0.3087281 0.030836318 -0.035644732 4291806641
-0.3084901 0.032441664 -0.035302822 4290486922
-0.30734113 0.03374964 -0.033492848 4288843637
-0.30710709 0.035343681 -0.033157069 4288189564
-0.30657327 0.03683332 -0.032338027 4290094981
-0.30634159 0.038420647 -0.032005813 4290553995
-0.30640969 0.040112253 -0.032156907 4290029963
-0.30588052 0.041588638 -0.031344991 4289964938
-0.30565116 0.043169297 -0.031016348 4290357898
-0.30571923 0.044860706 -0.031167418 4289304187
-0.30549061 0.046439115 -0.030839944 4287529847
-0.3055588 0.048132896 -0.030991221 4290359705
-0.30562708 0.049829088 -0.031142727 4294766767
-0.30569544 0.051527716 -0.031294435 4294965165
-0.3057639 0.053228792 -0.031446379 4294965192
-0.30583248 0.054932281 -0.031598523 4294967275
-0.30590114 0.056638222 -0.031750895 4294967291
-0.30626738 0.058479387 -0.032383796 4294967295
-0.30633634 0.060192715 -0.032536827 4294967295
-0.3061077 0.061770745 -0.032209322 4294967291
-0.30647457 0.063626766 -0.032843556 4294571478
-0.31040192 0.011382584 -0.040977921 4289753175
-0.30984139 0.012948507 -0.040110659 4288168763
-0.3092843 0.014507405 -0.039248783 4288039743
-0.30873063 0.016059345 -0.038392331 4289167199
-0.30818039 0.017604392 -0.037541207 4289307272
-0.30794013 0.019219942 -0.037193522 4290752137
-0.30800742 0.020912901 -0.037345517 4290296478
-0.30776796 0.02252589 -0.03699908 4288846724
-0.3075293 0.024136476 -0.03665391 4288255872
-0.30759665 0.025831584 -0.036806107 4288454532
-0.30735883 0.02743965 -0.036462143 4289176970
-0.30651549 0.028862843 -0.035133556 4290227860
-0.30628079 0.030461764 -0.034794521 4289436558
-0.30514893 0.031773321 -0.032996081 4288383347
-0.30491814 0.033361014 -0.032663077 4288056174
-0.30468816 0.034946457 -0.032331269 4287992435
-0.30445895 0.036529668 -0.032000646 4288980096
-0.30423048 0.038110621 -0.031671204 4290292364
-0.30459291 0.039900862 -0.032303322 4291276426
-0.30466002 0.041590042 -0.03245499 4290684546
-0.30443156 0.043170847 -0.032125533 4289698169
-0.30449879 0.044862386 -0.032277409 4288318322
-0.3042711 0.046440937 -0.031949107 4287268733
-0.30404416 0.048017308 -0.031621996 4290231720
-0.30411145 0.04971119 -0.031774085 4294442698
-0.30417886 0.051407471 -0.031926382 4294834623
-0.30424637 0.0531062 -0.032078903 4294834377
-0.30431393 0.054807357 -0.032231651 4294901744
-0.30438164 0.056510948 -0.032384604 4294967294
-0.30474427 0.058349386 -0.033018298 4294967295
-0.30451733 0.0599255 -0.032691181 4294967295
-0.30458531 0.06163644 -0.032844793 4294967292
-0.30494854 0.063489676 -0.033479825 4294703066
-0.30884296 0.011314946 -0.041598707 4289688919
-0.30797717 0.012810355 -0.040223684 4287972155
-0.30711925 0.014294728 -0.038861193 4287775543
-0.30626908 0.0157682 -0.03751111 4288174668
-0.30572858 0.017305067 -0.036668446 4289237622
-0.30549252 0.018911641 -0.036324918 4289570179
-0.30525723 0.020515811 -0.035982661 4290951832
-0.30532324 0.02219875 -0.036134552 4289439626
-0.30508876 0.023800425 -0.035793461 4288059005
-0.30485505 0.025399763 -0.035453591 4287862654
-0.30462214 0.026996767 -0.035114966 4288651910
-0.30379617 0.028411619 -0.033802859 4290163856
-0.3032715 0.029907875 -0.032985024 4288713596
-0.30304322 0.031491421 -0.032653607 4287333740
-0.30281568 0.03307271 -0.032323364 4287795055
-0.30258891 0.034651775 -0.031994294 4288124021
-0.30294734 0.036429696 -0.032626342 4288649079
-0.30301332 0.038111798 -0.032778148 4289895807
-0.3030794 0.039796248 -0.032930173 4290224774
-0.3028526 0.041375082 -0.032601092 4289237890
-0.30291876 0.043061901 -0.032753326 4288713080
-0.30298501 0.04475113 -0.032905787 4287925874
-0.30275899 0.046327684 -0.032577865 4287794816
-0.30282533 0.04801926 -0.032730535 4290889642
-0.30289176 0.049713288 -0.032883424 4293917135
-0.30295831 0.051409718 -0.03303653 4293981135
-0.30302495 0.053108577 -0.033189856 4294376919
-0.30309165 0.054809857 -0.033343405 4294770681
-0.30315849 0.056513593 -0.033497166 4294967295
-0.3032254 0.058219753 -0.033651151 4294967295
-0.30300009 0.059793908 -0.033324372 4294967295
-0.30306712 0.061502509 -0.033478569 4294967036
-0.30342674 0.063353024 -0.034114435 4294635231
-0.30759829 0.011313844 -0.042730343 4289624925
-0.30673727 0.012809393 -0.041351017 4287974464
-0.30588403 0.014293901 -0.039984282 4287446580
-0.30503854 0.015767507 -0.03862999 4287776316
-0.30420062 0.017230393 -0.037287939 4288313176
-0.30396634 0.018834809 -0.036944821 4288978553
-0.30373281 0.020436844 -0.036602922 4290360713
-0.30350006 0.022036517 -0.036262218 4289967504
-0.30326807 0.023633869 -0.035922784 4288453760
-0.30333313 0.025314247 -0.036075227 4287730810
-0.30310193 0.026909167 -0.035736963 4288059518
-0.30228299 0.028322443 -0.034424827 4288651139
-0.30118078 0.029634824 -0.03264299 4287728242
-0.30037868 0.031026633 -0.03135803 4287071595
-0.30044314 0.032691985 -0.031509116 4287926640
-0.30050769 0.03435969 -0.031660415 4288716155
-0.30028483 0.03593025 -0.031335223 4288716162
-0.30034944 0.037600297 -0.031486731 4288650376
-0.30099043 0.039481707 -0.032594141 4288783499
-0.30105546 0.041161381 -0.032746512 4289635207
-0.30141014 0.04295329 -0.033379484 4290814078
-0.30147547 0.04464018 -0.033532508 4290157181
-0.30154082 0.046329506 -0.033685777 4289699979
-0.30160633 0.048021231 -0.033839248 4292597419
-0.30167189 0.049715359 -0.033992931 4293785287
-0.30173755 0.051411938 -0.034146853 4292668884
-0.30180332 0.053110924 -0.034300983 4293984240
-0.30186918 0.054812357 -0.034455337 4294901758
-0.30193514 0.056516215 -0.034609918 4294967295
-0.30200118 0.058222532 -0.034764707 4294967295
-0.3017768 0.059796799 -0.034437116 4294967294
-0.30184293 0.061505556 -0.034592133 4294769910
-0.30219987 0.063356206 -0.035230443 4291419091
-0.30784175 0.00993519 -0.046300679 4290547054
-0.30728281 0.011512972 -0.045414217 4289625697
-0.30641845 0.013014514 -0.044017345 4288436553
-0.30525661 0.014434086 -0.042123172 4287315508
-0.30441052 0.0159116 -0.04075605 4287381300
-0.30357206 0.017378319 -0.039401323 4287516993
-0.30244449 0.018758193 -0.037563041 4288315235
-0.30191764 0.020279946 -0.036728431 4289306239
-0.30168739 0.021875268 -0.036389366 4290293390
-0.30145791 0.023468291 -0.036051497 4289504649
-0.30122921 0.025058994 -0.035714883 4288190080
-0.30100125 0.026647411 -0.03537941 4287730299
-0.29933077 0.027791105 -0.032631256 4287599226
-0.29910809 0.029364141 -0.032304082 4287071599
-0.29860142 0.030842973 -0.031501845 4287203181
-0.29866484 0.032503635 -0.031653274 4288387188
-0.29901323 0.034263466 -0.032281626 4289308283
-0.29879194 0.03583204 -0.031956788 4289438595
-0.29914069 0.037601441 -0.032586023 4288976766
-0.29949054 0.039378341 -0.033217262 4288515445
-0.29984149 0.041162804 -0.033850584 4289238392
-0.30019352 0.04295484 -0.03448597 4290619524
-0.30054671 0.044754501 -0.035123385 4291148437
-0.300901 0.046561819 -0.035762899 4292335273
-0.30096582 0.048258629 -0.035917629 4294570943
-0.3010307 0.049957849 -0.036072582 4294770646
-0.30109569 0.051659495 -0.036227737 4294508517
-0.30116078 0.05336358 -0.036383141 4294770678
-0.30122596 0.055070102 -0.036538757 4294967295
-0.30129123 0.056779079 -0.036694597 4294967295
-0.30106625 0.058357693 -0.036363836 4294967295
-0.30113161 0.060069099 -0.036519889 4294967036
-0.30119705 0.061782964 -0.03667618 4294833123
-0.30752563 0.010129386 -0.04902076 4290479462
-0.30696428 0.011713916 -0.048122801 4289625441
-0.30578762 0.013151972 -0.046187203 4288898129
-0.30493054 0.014646368 -0.044789951 4287579194
-0.30408123 0.016129704 -0.043405477 4287117873
-0.30323964 0.017602144 -0.042033628 4287381302
-0.30181152 0.018910358 -0.039671939 4287583815
-0.30069685 0.020279638 -0.0378385 4288641899
-0.30017594 0.021794923 -0.037006516 4289829763
-0.29965815 0.023303661 -0.036179669 4290292879
-0.29914352 0.024805982 -0.035357844 4289307019
-0.29806086 0.026130516 -0.033576902 4288058750
-0.29727271 0.027529057 -0.032292768 4287467127
-0.29677188 0.029006694 -0.031493422 4287006065
-0.2968342 0.030660361 -0.031644989 4287267949
-0.297178 0.032410238 -0.032272086 4288254321
-0.29752284 0.034167536 -0.032901216 4288845686
-0.29843768 0.036131609 -0.034493562 4288712820
-0.29821587 0.03770452 -0.034165576 4288252528
-0.29884988 0.039589252 -0.035283994 4287793263
-0.29920003 0.041379336 -0.035922952 4287992952
-0.29983988 0.043287884 -0.037051808 4288588430
-0.30019322 0.045096062 -0.037696589 4290693799
-0.30054769 0.046911966 -0.038343493 4293914560
-0.30061191 0.048616346 -0.038499713 4294966993
-0.3006762 0.050323155 -0.038656153 4294967256
-0.30103219 0.052156731 -0.039306104 4294967274
-0.30080509 0.053744134 -0.038969703 4294967285
-0.30086967 0.0554583 -0.039126828 4294967295
-0.30064335 0.057043456 -0.038791638 4294967295
-0.30070803 0.058760021 -0.038948972 4294967294
-0.30019298 0.060207307 -0.038124904 4294835958
-0.29996893 0.061786018 -0.037793327 4292538579
-0.30752182 0.010391518 -0.052302673 4290216547
-0.30664262 0.011916705 -0.050856385 4289559390
-0.3057715 0.013430377 -0.049423523 4289032795
-0.30490839 0.014932691 -0.048003901 4288172353
-0.30374879 0.016349774 -0.046079032 4287249201
-0.3026031 0.01775228 -0.044177368 4287117359
-0.30117458 0.019063404 -0.041793562 4287315765
-0.29947585 0.020279331 -0.038948737 4287649868
-0.29866871 0.02171479 -0.03762209 4288706414
-0.29786873 0.023140019 -0.036307242 4289633410
-0.29651007 0.024389112 -0.034040034 4290293645
-0.29628989 0.025960362 -0.03371248 4289438344
-0.29551086 0.027355727 -0.032432213 4288256382
-0.29501569 0.02882977 -0.031635594 4287401334
-0.29507697 0.030478785 -0.031787507 4287400304
-0.29569522 0.032317113 -0.032889277 4287598450
-0.29631716 0.034168411 -0.033997677 4287927157
-0.29750982 0.03623271 -0.036079891 4288057201
-0.29814267 0.03811641 -0.037207689 4287924588
-0.29877928 0.040013485 -0.038342323 4287661674
-0.29941976 0.041924141 -0.039483849 4287596910
-0.30006406 0.043848444 -0.040632278 4288320634
-0.30071226 0.045786537 -0.041787717 4290360212
-0.30077597 0.04750118 -0.041945674 4293517494
-0.30083981 0.049218263 -0.042103857 4294900172
-0.30090371 0.050937809 -0.042262275 4294967254
-0.30096769 0.052659821 -0.042420913 4294967273
-0.30044606 0.05412804 -0.04157928 4294967284
-0.30051005 0.055849921 -0.04173791 4294967295
-0.29999152 0.057309397 -0.040901199 4294967294
-0.29947606 0.058762819 -0.04006958 4294901493
-0.29867688 0.060074944 -0.038752753 4294179028
-0.30944249 0.011063038 -0.058931656 4289954143
-0.30886117 0.012679433 -0.057985004 4289560414
-0.30732802 0.014070554 -0.055402592 4289100128
-0.30707529 0.015739774 -0.055019941 4288568651
-0.30588192 0.017175915 -0.053020429 4287578424
-0.30470321 0.018597011 -0.051045518 4286920749
-0.30053368 0.019217361 -0.043927986 4286920752
-0.29854423 0.020357242 -0.040557165 4287053368
-0.29716569 0.021634916 -0.038235981 4287386699
-0.29608953 0.022977324 -0.036434248 4288247913
-0.29502591 0.024306549 -0.0346536 4289242495
-0.29452896 0.025791185 -0.033847429 4290490252
-0.2937589 0.027183423 -0.032571089 4289966218
-0.29354391 0.028741909 -0.032249637 4288651394
-0.29360425 0.030388704 -0.032402124 4287796346
-0.29421657 0.03222426 -0.033504903 4287599994
-0.29483247 0.034072731 -0.034614239 4288124282
-0.29601392 0.036133636 -0.036697794 4288582774
-0.29778117 0.03842875 -0.039790951 4288319347
-0.29784319 0.040121317 -0.039947666 4288056694
-0.29761875 0.041707251 -0.039610885 4288320381
-0.29854336 0.043737557 -0.041253984 4288979338
-0.29889512 0.045557316 -0.041910384 4290098840
-0.29924801 0.047384873 -0.042568937 4292268713
-0.29931086 0.049099557 -0.042727705 4294307262
-0.29966503 0.050939921 -0.043388862 4294966480
-0.30060744 0.053041603 -0.045064513 4294967267
-0.30037689 0.054644447 -0.044717807 4294967282
-0.29985467 0.05611375 -0.043867923 4294967292
-0.29904568 0.057444304 -0.042523123 4294836209
-0.29795727 0.058632046 -0.040695786 4293195984
-0.31135941 0.009972265 -0.065604955 4290811250
-0.3120901 0.011897333 -0.066926293 4289756767
-0.31182107 0.013615412 -0.066514164 4289427549
-0.31122127 0.01525451 -0.065528117 4289098585
-0.31029662 0.016807627 -0.063978225 4288635731
-0.30905604 0.01826871 -0.061879668 4287974720
-0.30751124 0.019632628 -0.059252545 4287117874
-0.30289325 0.020162946 -0.051290363 4286526255
-0.29760975 0.020435363 -0.042170525 4286592305
-0.29595062 0.021634743 -0.039340854 4286790453
-0.29516199 0.023058498 -0.038022012 4286926660
-0.29382321 0.024306625 -0.035747256 4287462240
-0.29305303 0.025707079 -0.034459554 4289175161
-0.29201683 0.027012091 -0.032709289 4290098060
-0.29180411 0.028566504 -0.032389361 4290360463
-0.2921356 0.030298892 -0.033015165 4289373829
-0.29246813 0.032038603 -0.033642966 4288321662
-0.29307643 0.033881374 -0.034750331 4288190077
-0.29536334 0.036335129 -0.038776569 4288256382
-0.29770425 0.038849149 -0.042897921 4288258438
-0.29863507 0.040877044 -0.044568129 4288523410
-0.29986838 0.043038044 -0.046765108 4289050781
-0.30081877 0.045110863 -0.048470583 4289907628
-0.30147815 0.047084995 -0.049670272 4291289273
-0.30154112 0.048828177 -0.049832493 4292601530
-0.30160421 0.050573859 -0.049994946 4293256117
-0.30196732 0.052449759 -0.050679769 4294505156
-0.30173063 0.054072715 -0.050320551 4294967251
-0.30030662 0.055166971 -0.047893826 4294966748
-0.29948747 0.056511182 -0.046519794 4294636000
-0.29838586 0.057712592 -0.044653349 4292071112
-0.31205058 0.010380822 -0.070291504 4290677613
-0.31245157 0.012253643 -0.07104975 4289689952
-0.31217894 0.013985068 -0.070628606 4289492316
-0.31190726 0.015713461 -0.070209011 4289098843
-0.31130254 0.017358981 -0.069206037 4288507478
-0.31004092 0.018832888 -0.067051999 4287979336
-0.30847052 0.020207517 -0.06435623 4287317308
-0.30377996 0.020730427 -0.056191988 4286658098
-0.29783165 0.020830672 -0.045820847 4286394925
-0.29673222 0.022197571 -0.043946341 4286394668
-0.29507762 0.023385713 -0.041097909 4286395696
-0.29317394 0.024472307 -0.037811864 4286530361
-0.2918545 0.025707303 -0.035549428 4286996560
-0.29055402 0.026926959 -0.033319619 4287988077
-0.29034284 0.028479397 -0.033000048 4289372029
-0.29040125 0.030119414 -0.03315343 4289900682
-0.29100007 0.031946547 -0.034255192 4290162572
-0.2916024 0.033786528 -0.035363484 4290030214
-0.29275832 0.035837092 -0.037443899 4289110916
-0.29590169 0.038640078 -0.043014228 4288388229
-0.29682088 0.040661197 -0.044680834 4288453767
-0.29774833 0.042702705 -0.046362497 4288716682
-0.29897743 0.044880431 -0.048574526 4289243023
-0.29933333 0.046729311 -0.049253289 4289900439
-0.29969034 0.048586216 -0.049934272 4290493090
-0.29975232 0.050326813 -0.050097071 4291217578
-0.30011073 0.052196864 -0.050780863 4292728755
-0.2998766 0.053815488 -0.050423369 4293650359
-0.29876179 0.055038776 -0.048517458 4292793516
-0.29283091 0.06071008 -0.038351733 4289497712
-0.29344258 0.062681898 -0.039480455 4288968548
-0.31343845 0.010938386 -0.076277092 4290545768
-0.31316006 0.012689116 -0.075843304 4289821020
-0.31322411 0.014513059 -0.076014727 4289556309
-0.31363085 0.016419109 -0.076792248 4289031512
-0.31267029 0.018004473 -0.075152077 4288377434
-0.31138283 0.019493278 -0.072933175 4288047953
-0.30978084 0.020880276 -0.07015723 4287517760
-0.30250847 0.020729978 -0.057348102 4287118646
-0.29983732 0.021721786 -0.052676976 4286788650
-0.29665661 0.022524403 -0.047102589 4286525990
-0.29499206 0.023716785 -0.044210225 4286329382
-0.2925207 0.024638953 -0.039888665 4286198570
-0.29120132 0.025876446 -0.037605487 4286397232
-0.29017109 0.027184473 -0.035833672 4286729021
-0.28915271 0.028479872 -0.03408232 4287062609
-0.28921029 0.030120004 -0.03423648 4287594859
-0.289536 0.031854756 -0.034865819 4288780668
-0.28986272 0.033596791 -0.035497177 4289768068
-0.29046103 0.035443991 -0.036610048 4289837198
-0.29079068 0.03720345 -0.037247092 4289639826
-0.29112133 0.038970325 -0.037886139 4289901202
-0.29145306 0.0407447 -0.038527299 4290163601
-0.29206061 0.042635482 -0.039657909 4290624405
-0.29239529 0.044427667 -0.040304862 4291084700
-0.29273102 0.046227459 -0.040953945 4291151527
-0.29306784 0.048034906 -0.04160513 4290430638
-0.29340571 0.049850043 -0.042258423 4290299567
-0.29346538 0.05155002 -0.042418204 4290228380
-0.29155645 0.059018161 -0.039297603 4288641122
-0.29161596 0.060713097 -0.039456904 4288305484
-0.29222322 0.062685058 -0.040589631 4288044114
-0.3134729 0.011221917 -0.079940431 4290479460
-0.31319171 0.012983702 -0.079498723 4289821019
-0.31291154 0.01474237 -0.079058699 4289359704
-0.31331879 0.01665825 -0.079845846 4288965202
-0.31235418 0.018250298 -0.078183718 4288506957
-0.31106159 0.019744823 -0.075935446 4288244302
-0.30912247 0.021050699 -0.072531804 4287516995
-0.308198 0.022596559 -0.070939548 4287054392
-0.30068731 0.022304373 -0.057579599 4286921263
-0.29775274 0.023190008 -0.052392621 4286723111
-0.29519209 0.024136154 -0.047872283 4286459936
-0.29241976 0.024975045 -0.042972118 4286329124
-0.29054418 0.026046563 -0.039673612 4286329636
-0.28951392 0.027357511 -0.037885547 4286264615
-0.28822857 0.028567946 -0.035640813 4286265393
-0.28801912 0.030120626 -0.035319705 4286530362
-0.28807592 0.031763196 -0.035474867 4287059273
-0.28866646 0.033597663 -0.036585059 4287326297
-0.28899166 0.03534719 -0.037220787 4287529836
-0.28931788 0.0371041 -0.037858568 4287993470
-0.28910634 0.038662959 -0.037534002 4288781699
-0.28943288 0.040429369 -0.038172703 4289831296
-0.28976044 0.042203236 -0.038813449 4290817155
-0.29008901 0.043984592 -0.03945623 4291474053
-0.29041862 0.045773502 -0.040101137 4291868293
-0.29047674 0.047454093 -0.04025989 4291541897
-0.29108098 0.049374059 -0.04139721 4290557842
-0.29086596 0.050943248 -0.041066777 4289111955
-0.29065165 0.052510314 -0.040737525 4288320645
-0.29043803 0.054075267 -0.040409438 4288773996
-0.29049647 0.055765517 -0.040569115 4288573280
-0.29028359 0.057328396 -0.040242251 4287913041
-0.29034215 0.059021045 -0.040402144 4287713090
-0.29040077 0.0607161 -0.040562272 4287646271
-0.29100367 0.062688224 -0.041698989 4288175698
-0.31420481 0.011654921 -0.084908225 4290149984
-0.31391868 0.01343355 -0.084454879 4289558621
-0.31363359 0.015208922 -0.08400327 4289360218
-0.31334957 0.016981104 -0.083553433 4289028940
-0.31306651 0.018750047 -0.083105259 4288437836
-0.31175575 0.020256069 -0.080803923 4287976775
-0.31012562 0.021657353 -0.077925943 4287580477
-0.30819157 0.022949658 -0.074498907 4287184946
-0.30342442 0.023420304 -0.06595996 4286593835
-0.29887539 0.023871848 -0.057811785 4286396711
-0.29510567 0.024476143 -0.051067337 4286723359
-0.29203737 0.025229761 -0.045586649 4286788386
-0.28988302 0.02621768 -0.041753978 4286656804
-0.28885272 0.027531551 -0.039949495 4286591269
-0.2873016 0.028656254 -0.037203938 4286395175
-0.28709233 0.030211151 -0.036880914 4286329897
-0.28741381 0.031948768 -0.037516512 4286199085
-0.28747001 0.033598531 -0.037673116 4286135092
-0.28752631 0.035250649 -0.037829969 4286334525
-0.2878491 0.037005022 -0.038468484 4286665284
-0.28790563 0.038664225 -0.038626 4287257933
-0.28796223 0.040325783 -0.03878374 4287783507
-0.28828636 0.042097107 -0.039425235 4288375385
-0.28834322 0.043765798 -0.039583638 4288770140
-0.28840017 0.045436889 -0.039742284 4289032285
-0.2881895 0.046995822 -0.039416946 4289294685
-0.28851429 0.048786253 -0.040060252 4289031517
-0.28830364 0.050345171 -0.039734904 4288177499
-0.28862873 0.052145209 -0.040379141 4287455575
-0.28815085 0.053580265 -0.039570052 4287255881
-0.28901237 0.055640787 -0.041185688 4287186753
-0.28906995 0.05733113 -0.04134617 4287054396
-0.28912765 0.059023924 -0.041506875 4287252026
-0.2891854 0.060719136 -0.041667797 4287845702
-0.29032776 0.062967613 -0.043793779 4289297761
-0.31488836 0.010225866 -0.08979696 4290812275
-0.31424445 0.01194788 -0.088689916 4289821792
-0.31360492 0.013661135 -0.087590501 4289556827
-0.31366745 0.015524694 -0.087768294 4289291857
-0.31303212 0.017225752 -0.086676031 4288763973
-0.31309462 0.019088428 -0.086853735 4288305224
-0.31177413 0.020602237 -0.084513672 4287977547
-0.30845565 0.021569166 -0.078534767 4287449147
-0.30428025 0.022246556 -0.070993237 4287053620
-0.30088782 0.023071738 -0.064875416 4286462768
-0.29760927 0.023871694 -0.058963049 4286330413
-0.29501802 0.024820251 -0.054301053 4286657833
-0.29165143 0.02548673 -0.04822455 4286723626
-0.2894913 0.02647608 -0.04434504 4286657576
-0.28845793 0.027794315 -0.042518485 4286525989
-0.2869027 0.028921733 -0.03973968 4286329126
-0.28669223 0.030483101 -0.039412402 4286263333
-0.28648245 0.032042313 -0.039086293 4286198054
-0.28680322 0.033790018 -0.039727882 4286133547
-0.2868588 0.035447009 -0.039885972 4286264877
-0.2869145 0.037106372 -0.040044274 4286330926
-0.28617594 0.038461205 -0.03875304 4286397748
-0.28623155 0.040118158 -0.038911104 4286660153
-0.28628722 0.041777469 -0.039069418 4286791995
-0.28634298 0.043439128 -0.039227936 4286793276
-0.28639883 0.045103196 -0.039386693 4286859328
-0.28645474 0.046769626 -0.03954567 4287121218
-0.28651074 0.048438426 -0.039704878 4287055167
-0.28656685 0.050109636 -0.039864309 4287119678
-0.2863591 0.051662497 -0.039541665 4286923065
-0.28694397 0.053582743 -0.040667802 4286857012
-0.28833592 0.055898454 -0.043269865 4286660152
-0.28893262 0.057855282 -0.044418667 4286792763
-0.28926092 0.05969175 -0.045076996 4287385411
-0.29013667 0.061810456 -0.046737008 4288704343
-0.31457749 0.010439726 -0.092994489 4290743914
-0.31393042 0.012169779 -0.091872163 4289821278
-0.31328779 0.013890978 -0.090757571 4289688410
-0.31299901 0.015683571 -0.090292804 4289291083
-0.31236282 0.017389836 -0.089189462 4288566593
-0.31069893 0.018832633 -0.086196855 4288172348
-0.30939955 0.020340858 -0.083873384 4287912003
-0.30912304 0.022098329 -0.083429858 4287449400
-0.30652222 0.023216886 -0.078711845 4286922288
-0.30208385 0.023772305 -0.070612572 4286527274
-0.29723632 0.024131589 -0.06175784 4286526763
-0.29522157 0.025256237 -0.058112167 4286658609
-0.29126185 0.025745967 -0.050886095 4286789936
-0.28909591 0.026736774 -0.046959121 4286920491
-0.2880595 0.028059384 -0.045110088 4286919973
-0.2865001 0.029189516 -0.04229755 4286591524
-0.28602275 0.030665893 -0.041476671 4286394917
-0.2860775 0.032323081 -0.041635551 4286460453
-0.28586727 0.033886619 -0.041306358 4286525991
-0.2856577 0.035448033 -0.040978286 4286395179
-0.28544879 0.037007291 -0.040651392 4286329901
-0.28524059 0.038564481 -0.040325671 4286330670
-0.28503302 0.040119544 -0.040001106 4286330927
-0.28482616 0.041672528 -0.039677687 4286330673
-0.28488097 0.043331958 -0.039836783 4286265907
-0.28493589 0.044993777 -0.039996106 4286200629
-0.28420952 0.046319149 -0.038714305 4286331960
-0.28452414 0.048093598 -0.039352719 4286332216
-0.28457916 0.04975779 -0.039512265 4286528823
-0.28594512 0.052028086 -0.04209144 4286659635
-0.2875993 0.054459646 -0.045203518 4286856755
-0.288737 0.056675196 -0.047363155 4286792762
-0.28961325 0.058785174 -0.049040794 4287123266
-0.28994501 0.060641956 -0.049713504 4288177490
-0.31426328 0.010655749 -0.09622445 4290415463
-0.31325904 0.012318482 -0.09442994 4290017625
-0.31261551 0.014045034 -0.093303956 4289557591
-0.31232595 0.015843481 -0.092834353 4289159243
-0.31099534 0.017388795 -0.090432808 4288565826
-0.31036699 0.019086603 -0.089333795 4288039481
-0.3087239 0.020513557 -0.086350858 4287908405
-0.30677554 0.021831546 -0.082800008 4287447600
-0.3051905 0.023216425 -0.079922728 4286790446
-0.30140692 0.023949964 -0.072961099 4286461481
-0.29685974 0.024393873 -0.06457863 4286527017
-0.29454571 0.025432467 -0.060342319 4286659120
-0.29086858 0.026007544 -0.053571608 4286855729
-0.28869686 0.026999773 -0.049596436 4286986286
-0.28738576 0.028237505 -0.047219805 4287051564
-0.28609383 0.029459652 -0.044877905 4286920493
-0.28561473 0.030941786 -0.044046812 4286789420
-0.28540328 0.032511853 -0.043713223 4286920491
-0.28545743 0.034176324 -0.043873567 4286920236
-0.28577739 0.035942417 -0.044528555 4286658095
-0.28556594 0.037512369 -0.04419497 4286592813
-0.28456444 0.038770631 -0.04239079 4286461740
-0.28461856 0.040434971 -0.042551119 4286330669
-0.28441054 0.041994333 -0.042223442 4286265135
-0.28420317 0.04355159 -0.041896954 4286265651
-0.28451905 0.045330148 -0.042544819 4286331700
-0.28431171 0.046887379 -0.042218309 4286397494
-0.28621456 0.049382403 -0.045823362 4286528821
-0.28707355 0.051438678 -0.04748442 4286660405
-0.28821209 0.053641472 -0.049667206 4286726708
-0.2901949 0.056265339 -0.053424545 4286989624
-0.29193553 0.058809899 -0.056731757 4287123262
-0.29227626 0.060700387 -0.057429578 4287716171
-0.29290354 0.062741749 -0.058662225 4288969053
-0.31358805 0.010800421 -0.098817736 4290152805
-0.31258288 0.012468148 -0.097005054 4289690464
-0.31158787 0.014121794 -0.095210761 4289293655
-0.31129852 0.015923217 -0.094738007 4289160268
-0.30997157 0.017470717 -0.09232083 4288698436
-0.30832264 0.018915499 -0.089299314 4288105017
-0.30703479 0.020425919 -0.08695361 4287644468
-0.30412486 0.021480016 -0.081565946 4287315505
-0.30353492 0.023126272 -0.080526836 4286854954
-0.30041191 0.024039034 -0.074736506 4286592805
-0.29587981 0.024481731 -0.066300921 4286723878
-0.29386547 0.025609788 -0.062586196 4286921005
-0.29047158 0.026271449 -0.056281414 4286986799
-0.28829405 0.027265087 -0.05225737 4287117872
-0.28697929 0.028506475 -0.049851507 4287183153
-0.28568381 0.029732132 -0.047480978 4287117618
-0.2854698 0.031313151 -0.047140542 4287052080
-0.28525651 0.032891963 -0.046801347 4287117614
-0.28531009 0.034566235 -0.046963427 4287052078
-0.28563082 0.036343291 -0.047627512 4286987057
-0.2854175 0.037921954 -0.047288291 4286921520
-0.28547132 0.03960339 -0.047451071 4286790448
-0.28525871 0.041179772 -0.047113042 4286724656
-0.28451744 0.042535827 -0.045780931 4286659378
-0.28430757 0.044103675 -0.045447744 4286528822
-0.28462499 0.045896012 -0.046106234 4286595127
-0.2857416 0.048046656 -0.048268452 4286726454
-0.28633207 0.049983021 -0.049441431 4286791989
-0.28719696 0.05205711 -0.051131357 4286857781
-0.28917122 0.054666094 -0.054910012 4286859319
-0.29175442 0.057602253 -0.059836481 4287056699
-0.2932452 0.060057212 -0.062707707 4287452994
-0.2944656 0.062407292 -0.065070905 4288441171
-0.31326571 0.011020112 -0.1021051 4289822821
-0.31190196 0.012618823 -0.099597678 4289625960
-0.31090602 0.014277398 -0.097785264 4289095766
-0.31026748 0.016003227 -0.096648298 4288962379
-0.30860141 0.017469646 -0.093566597 4288567364
-0.30629152 0.01874551 -0.089265294 4288038967
-0.30469036 0.020166276 -0.086304076 4287513138
-0.30279154 0.021479417 -0.082778275 4287118642
-0.30124652 0.022858541 -0.079921179 4286723884
-0.29786554 0.023682773 -0.073585749 4286527271
-0.29430279 0.024393532 -0.066903666 4286789927
-0.29259771 0.025609748 -0.063739002 4286986282
-0.28978828 0.026448742 -0.058480404 4287117870
-0.28761151 0.027443372 -0.054419123 4287183408
-0.28656903 0.028777825 -0.052506693 4287249971
-0.28526998 0.030007007 -0.050107103 4287252281
-0.28505477 0.031594682 -0.049762137 4287185721
-0.28510776 0.033276513 -0.049925733 4287118131
-0.28516078 0.034960702 -0.050089572 4287118385
-0.28494629 0.036546007 -0.049745839 4287118642
-0.28473249 0.038129091 -0.049403336 4287184435
-0.2850526 0.039921474 -0.050074197 4287184435
-0.28457251 0.041396391 -0.049226109 4287184691
-0.28436011 0.042975016 -0.048886068 4286988598
-0.28441328 0.044663794 -0.049050357 4286857784
-0.28553423 0.0468175 -0.051242962 4286923832
-0.28531972 0.048402417 -0.0508992 4286989623
-0.2861805 0.050470278 -0.052598599 4286858551
-0.28704891 0.052558903 -0.05431325 4286858296
-0.29015306 0.055715278 -0.060278524 4286925370
-0.29336125 0.058979884 -0.066443801 4287189056
-0.29488626 0.061483204 -0.0694106 4287717194
-0.29643494 0.064027809 -0.07242348 4289100124
-0.31505945 0.0097630825 -0.10939927 4290875758
-0.31330001 0.011317091 -0.106114 4289822305
-0.31192577 0.012924775 -0.10356333 4289693286
-0.31092209 0.014593136 -0.10171952 4288965462
-0.30958006 0.016165284 -0.099228695 4288831561
-0.30825603 0.017719178 -0.096771359 4288568903
-0.30661115 0.01916937 -0.093699947 4287973176
-0.30433071 0.020424407 -0.089412294 4287381810
-0.30242524 0.021741571 -0.085840143 4286987055
-0.30087477 0.023125365 -0.082945652 4286593070
-0.29686925 0.023771035 -0.075354137 4286658601
-0.293024 0.024393359 -0.068066463 4286855722
-0.29161894 0.02569879 -0.065445408 4286986794
-0.28881913 0.026537858 -0.060154069 4287117867
-0.28692472 0.02762272 -0.05659391 4287248941
-0.28588235 0.028960166 -0.054663803 4287315251
-0.28485233 0.030284308 -0.052756578 4287253564
-0.2846359 0.031878699 -0.052406989 4287387204
-0.28468823 0.033568058 -0.052572124 4287384128
-0.28474066 0.035259824 -0.052737478 4287249973
-0.28452498 0.03685179 -0.052389182 4287249971
-0.28457746 0.038545877 -0.052554775 4287250228
-0.28409567 0.040028989 -0.051696274 4287250739
-0.28388208 0.041614264 -0.051351707 4287250996
-0.28393456 0.043308143 -0.051517278 4287120182
-0.28478816 0.045346428 -0.053219501 4287120440
-0.284841 0.047052633 -0.053386286 4287054903
-0.28516263 0.048880953 -0.054068897 4287054902
-0.28575572 0.05084002 -0.055272736 4286924087
-0.28744873 0.053321593 -0.058588367 4286858554
-0.29087222 0.056654409 -0.06522768 4287057726
-0.29561636 0.060688883 -0.074405462 4287453254
-0.29627547 0.062804803 -0.075740971 4288310358
-0.3147386 0.0099817747 -0.11280926 4290611815
-0.31333452 0.011618157 -0.11017819 4289821020
-0.31194976 0.013234911 -0.10758331 4289560673
-0.31093812 0.014913165 -0.10570741 4289099101
-0.30993679 0.016577091 -0.1038508 4288766281
-0.30722019 0.017802188 -0.098683074 4288503880
-0.30524412 0.019168451 -0.09494289 4287842363
-0.30265081 0.020337086 -0.090009622 4287249712
-0.30076373 0.021653084 -0.086438306 4286855211
-0.29891288 0.022946417 -0.082935721 4286592810
-0.29556507 0.023770722 -0.076539986 4286789673
-0.29145336 0.024305433 -0.068665937 4286986283
-0.29006153 0.02560968 -0.06604515 4287117867
-0.28756726 0.026537949 -0.061292443 4287183659
-0.28595889 0.027712895 -0.058250781 4287381039
-0.28519139 0.029143609 -0.05683386 4287580475
-0.28389308 0.030377619 -0.054389894 4287518018
-0.28367692 0.031974368 -0.054038197 4287586120
-0.28372848 0.033666339 -0.054204371 4287586127
-0.28404796 0.035460986 -0.054889143 4287514944
-0.28383178 0.037057485 -0.054537434 4287381044
-0.28361627 0.03865172 -0.054186992 4287316020
-0.28340155 0.040243685 -0.053837847 4287250996
-0.28345332 0.041942742 -0.054004718 4287316276
-0.28403929 0.04386887 -0.055206414 4287251766
-0.28435966 0.045693129 -0.055894099 4287251768
-0.28495109 0.047643781 -0.057107199 4286989882
-0.28527442 0.049486633 -0.057801228 4286989369
-0.28641886 0.051712736 -0.060087226 4286923577
-0.28785551 0.054098029 -0.062940598 4286859836
-0.28959748 0.056656878 -0.066387132 4287322181
-0.29550979 0.061274573 -0.077923335 4288179281
-0.31441417 0.010202771 -0.11625507 4290348389
-0.31336933 0.011923393 -0.11429885 4289819224
-0.31233537 0.013628945 -0.11236309 4289427803
-0.31024182 0.015074119 -0.10836214 4289231449
-0.31172925 0.017337069 -0.11133839 4288637007
-0.3068651 0.018055096 -0.1019354 4288305479
-0.30387688 0.019167533 -0.096186034 4287710780
-0.30162573 0.020422895 -0.091871761 4287183921
-0.29910737 0.021564879 -0.08703474 4286789418
-0.29758656 0.022945974 -0.084141731 4286658087
-0.29426071 0.023770416 -0.077726021 4286855209
-0.29046583 0.024392996 -0.070392586 4287051818
-0.2890785 0.025698718 -0.067755446 4287183147
-0.28687146 0.026716849 -0.063517034 4287249198
-0.2855382 0.027984589 -0.060983144 4287382069
-0.2844961 0.029328145 -0.059017014 4287715397
-0.28293085 0.030471198 -0.056028165 4287718220
-0.2829816 0.032165874 -0.056195401 4287520841
-0.28276566 0.033764888 -0.055841602 4287588951
-0.28308332 0.035562471 -0.056530584 4287652177
-0.28286737 0.037161306 -0.056176774 4287513658
-0.28265211 0.038757857 -0.055824213 4287446836
-0.28243756 0.040352151 -0.055472914 4287381813
-0.28248855 0.042053834 -0.055640843 4287381558
-0.28307167 0.043983255 -0.056849986 4287317815
-0.28339022 0.045810517 -0.057541903 4287385150
-0.28424853 0.04788379 -0.059290431 4286928202
-0.28457087 0.049732618 -0.0599906 4286927176
-0.28626403 0.052220576 -0.063374832 4286992198
-0.28798795 0.054756176 -0.066820703 4286797644
-0.29003027 0.057478219 -0.070891552 4287260503
-0.31445777 0.010501684 -0.12046809 4290084965
-0.31377354 0.012311356 -0.11920325 4289818967
-0.31272745 0.01402984 -0.11722609 4289424981
-0.31463176 0.016412333 -0.12105414 4289032273
-0.31320956 0.01803246 -0.11833633 4288441174
-0.30894628 0.018919259 -0.11002436 4288041026
-0.30621833 0.020126153 -0.10473233 4287578680
-0.3009223 0.020596128 -0.094380625 4287118129
-0.29840401 0.021739738 -0.089496471 4286789417
-0.29657099 0.023034584 -0.085960642 4286789157
-0.29325655 0.023858925 -0.079504214 4286986280
-0.28976452 0.02456915 -0.07269527 4287182889
-0.28809226 0.025788032 -0.069471106 4287314219
-0.28617132 0.026896836 -0.065755308 4287314735
-0.28483838 0.028167186 -0.063197784 4287316020
-0.28379652 0.029513771 -0.061213404 4287583555
-0.28223196 0.030658687 -0.058197044 4287653711
-0.28228199 0.032358523 -0.058365576 4287456588
-0.28206554 0.033962101 -0.058008317 4287589718
-0.28211564 0.035664272 -0.058177087 4287787866
-0.28189993 0.037265427 -0.057821095 4287649094
-0.28168491 0.038864315 -0.057466429 4287513655
-0.2814706 0.040460918 -0.057113022 4287447605
-0.28231677 0.042497166 -0.05885458 4287447349
-0.2826342 0.0443253 -0.059552118 4287318075
-0.28295264 0.046161313 -0.060251929 4287785294
-0.2838119 0.048245564 -0.062021188 4287724640
-0.28495261 0.050475355 -0.064347573 4287592286
-0.28638497 0.052863441 -0.067251705 4287658331
-0.2884061 0.05555876 -0.071321569 4287856735
-0.3151969 0.0089732232 -0.12603791 4291007602
-0.31412742 0.010728161 -0.1239972 4289887586
-0.3134397 0.012546714 -0.12271427 4289819735
-0.31312624 0.014437772 -0.12217451 4289292113
-0.31429926 0.016670482 -0.12458919 4288635728
-0.31287089 0.018297449 -0.12183335 4288242773
-0.309302 0.019361923 -0.11482009 4287777341
-0.30516699 0.020214206 -0.10667827 4287381043
-0.30021402 0.020770501 -0.09690617 4286986800
-0.29737893 0.02182726 -0.091343932 4286854951
-0.29555193 0.023123508 -0.087785549 4287051557
-0.29194972 0.023858622 -0.0806925 4287117609
-0.28876939 0.024657557 -0.074436493 4287248683
-0.28738689 0.025967522 -0.071757875 4287379758
-0.28574568 0.027168833 -0.06856294 4287511088
-0.28468475 0.028535401 -0.06652271 4287446066
-0.28363666 0.029888015 -0.064507216 4287449916
-0.28206334 0.031036528 -0.061444294 4287653196
-0.281845 0.032649327 -0.061080929 4287655507
-0.28162739 0.034259755 -0.060718875 4287722066
-0.28167683 0.035969608 -0.060889214 4287788377
-0.2811943 0.037473571 -0.059998702 4287717198
-0.2809788 0.039077025 -0.05964056 4287648836
-0.28155902 0.041004431 -0.060869835 4287317310
-0.28160867 0.042721521 -0.061040897 4287317558
-0.28192511 0.044555563 -0.061744571 4287449922
-0.28251091 0.046515271 -0.062986322 4287855709
-0.28337118 0.048610579 -0.064776599 4287194707
-0.28478852 0.050978672 -0.067680217 4286993746
