# .PCD v0.7 - Point Cloud Data file format
VERSION 0.7
FIELDS x y z rgba
SIZE 4 4 4 4
TYPE F F F U
COUNT 1 1 1 1
WIDTH 1017
HEIGHT 1
VIEWPOINT 0 0 0 1 0 0 0
POINTS 1017
DATA ascii
-0.31290379 0.080308676 -0.11617066 4287520622
-0.31260419 0.082133323 -0.11566368 4285943133
-0.31266472 0.084153801 -0.11586305 4284369238
-0.31308571 0.08638043 -0.11676978 4282862937
-0.31350827 0.088617638 -0.11767995 4282273370
-0.31429669 0.091077819 -0.11930859 4282077534
-0.31545886 0.093776077 -0.12167165 4281750629
-0.31663319 0.096505433 -0.1240596 4281750885
-0.31744376 0.099036403 -0.12573414 4281947745
-0.31901926 0.10205937 -0.12891185 4282079076
-0.31984699 0.10464276 -0.13062175 4282340704
-0.31991026 0.10675455 -0.13083014 4282602847
-0.32035822 0.10911913 -0.13179474 4282733403
-0.32119536 0.11175045 -0.13352482 4282733144
-0.32087165 0.11362369 -0.13297315 4282930262
-0.32093552 0.11575527 -0.13318346 4283258454
-0.32061303 0.11762432 -0.13263398 4283717718
-0.32067695 0.11975837 -0.13284457 4283980886
-0.320741 0.12189551 -0.13305543 4284046936
-0.32041973 0.12375981 -0.1325081 4284967774
-0.34750184 -0.036450438 -0.18323049 4288447340
-0.34857178 -0.034243796 -0.18541732 4289426525
-0.34863728 -0.032018874 -0.18563789 4289949269
-0.34769756 -0.029802872 -0.18388955 4289619792
-0.34528446 -0.027632849 -0.17925395 4287522905
-0.34291959 -0.025503136 -0.17471118 4284245347
-0.33284241 -0.023715543 -0.15505111 4282670181
-0.32604659 -0.021950778 -0.14181602 4282077536
-0.32404575 -0.020033246 -0.13797729 4281945432
-0.32128215 -0.018200843 -0.13264138 4281879898
-0.31858802 -0.01641166 -0.12743966 4281879644
-0.31672114 -0.014599898 -0.12385892 4282338654
-0.31563988 -0.012746971 -0.1218183 4285291623
-0.31494454 -0.010872458 -0.12053434 4291795319
-0.31425411 -0.0090083722 -0.11925961 4293161320
-0.31431133 -0.0070649036 -0.11945228 4293419859
-0.31399655 -0.0051670759 -0.11891456 4292765276
-0.31368288 -0.0032731639 -0.11837892 4293487686
-0.31374013 -0.0013283743 -0.11857173 4293277496
-0.31454101 0.00073619664 -0.12022572 4292823366
-0.31459865 0.0026932962 -0.12041974 4293213750
-0.31503031 0.0047188322 -0.12134905 4293538342
-0.31471413 0.0066157021 -0.12080862 4293407529
-0.31514615 0.0086536519 -0.12173916 4293080361
-0.3152042 0.010625206 -0.12193464 4293081384
-0.31563801 0.012679362 -0.12286932 4292819503
-0.3156963 0.014659916 -0.12306569 4292687153
-0.31575471 0.016643291 -0.12326232 4292818991
-0.31431723 0.018270239 -0.12051478 4292623665
-0.31437537 0.020245295 -0.1207106 4292556590
-0.3144336 0.022223096 -0.12090667 4292620839
-0.31412089 0.024104334 -0.12037234 4292555558
-0.31380937 0.025981814 -0.11984015 4292358950
-0.31386766 0.027961107 -0.12003636 4292162347
-0.31355727 0.029834185 -0.11950622 4292162611
-0.31324801 0.031703547 -0.11897817 4292233277
-0.31330633 0.033684347 -0.11917456 4292104261
-0.31263301 0.035431251 -0.11792845 4292105296
-0.3126913 0.037410803 -0.1181247 4292240989
-0.3123855 0.039268557 -0.1176029 4292308827
-0.31208083 0.041122738 -0.11708321 4292439892
-0.31213915 0.043103848 -0.11727962 4292438356
-0.31183559 0.044953831 -0.11676188 4292433741
-0.311894 0.04693716 -0.11695851 4292628034
-0.31195247 0.04892334 -0.11715542 4292763724
-0.31165001 0.050768577 -0.11663964 4292642411
-0.31170857 0.052757006 -0.11683678 4292442723
-0.31104845 0.054448638 -0.11561427 4292038476
-0.31110695 0.056435879 -0.1158113 4292238157
-0.31116557 0.058425952 -0.11600858 4292705115
-0.31122425 0.060418893 -0.11620618 4292637545
-0.31128299 0.062414695 -0.11640405 4292837482
-0.31170112 0.064579956 -0.11731265 4292440416
-0.31140077 0.066414833 -0.11680064 4292955982
-0.31181929 0.06859272 -0.11771049 4293158494
-0.31187847 0.070603393 -0.11790983 4293092698
-0.31193778 0.072616965 -0.11810946 4291132532
-0.31199712 0.074633449 -0.11830939 4288639092
-0.31169674 0.076465495 -0.11779706 4286929509
-0.3113974 0.078294188 -0.11728679 4285419872
-0.31109923 0.08011952 -0.1167786 4283846496
-0.31080213 0.08194156 -0.11627237 4282862685
-0.31121814 0.084157877 -0.11717898 4282600538
-0.31163561 0.086384676 -0.11808891 4282338908
-0.31205466 0.088622056 -0.11900232 4282208092
-0.312837 0.091082416 -0.12063647 4282143838
-0.31399056 0.093780853 -0.12300739 4281750885
-0.31515619 0.09651041 -0.1254033 4281881699
-0.31633416 0.099271551 -0.1278246 4282143580
-0.31790355 0.10230167 -0.13102366 4282339674
-0.31872767 0.10489061 -0.13274498 4282404951
-0.31878999 0.10700631 -0.13295473 4282601557
-0.31923568 0.10937572 -0.13392586 4282929746
-0.32006925 0.11201279 -0.13566759 4283389010
-0.32013214 0.114149 -0.13587938 4283914324
-0.32019514 0.11628834 -0.13609149 4284308053
-0.3202582 0.11843079 -0.13630389 4284635990
-0.32032138 0.12057638 -0.13651662 4284964951
-0.32038465 0.12272508 -0.13672963 4284767833
-0.32006118 0.12459793 -0.13617384 4286936163
-0.3468464 -0.036471922 -0.18670566 4287986024
-0.3479169 -0.03425616 -0.18891685 4289229148
-0.34848788 -0.032020461 -0.19014089 4289817941
-0.34804627 -0.029784642 -0.18936226 4289553742
-0.34660363 -0.027576014 -0.18660271 4287850582
-0.34370711 -0.02543563 -0.1809649 4285294433
-0.33216453 -0.023685925 -0.15821065 4283522403
-0.32831407 -0.021772373 -0.1506765 4282209379
-0.32417983 -0.019943666 -0.1425776 4281880156
-0.32059366 -0.018152175 -0.135561 4281814361
-0.31789747 -0.016357016 -0.13030474 4281748570
-0.31564811 -0.014571505 -0.12593171 4281814620
-0.31456959 -0.012715295 -0.12387741 4283389280
-0.31350258 -0.010875987 -0.12184508 4288901988
-0.31281623 -0.0090117706 -0.12056666 4292832349
-0.31250295 -0.0071130991 -0.12002766 4293747019
-0.31219086 -0.0052183582 -0.11949071 4293023820
-0.31187993 -0.003327514 -0.11895596 4293277999
-0.31193611 -0.0013859682 -0.11914936 4293407017
-0.31235963 0.00061653415 -0.12007195 4293210664
-0.31241608 0.0025669397 -0.12026622 4293145381
-0.31284139 0.0045853122 -0.12119296 4293015334
-0.31252915 0.0064759352 -0.12065561 4293015084
-0.31295484 0.0085066548 -0.12158355 4292752684
-0.31301165 0.010471447 -0.12177929 4292753963
-0.31343904 0.012518249 -0.12271131 4292753963
-0.31312558 0.014409329 -0.12217154 4292818220
-0.31207833 0.016125724 -0.12017314 4293013287
-0.31140518 0.017914766 -0.11891765 4292948262
-0.31146193 0.019876229 -0.11911304 4292882467
-0.31151873 0.021840479 -0.11930869 4292620322
-0.31157565 0.023807505 -0.11950462 4292162086
-0.31126916 0.025675889 -0.11897766 4291769391
-0.31096375 0.027540548 -0.11845275 4291840322
-0.3106595 0.029401558 -0.11792994 4291841104
-0.31071645 0.031369481 -0.11812595 4292109398
-0.31077343 0.033340167 -0.11832228 4292045652
-0.31011131 0.035079386 -0.11708645 4291846232
-0.31016827 0.037048865 -0.11728263 4291978336
-0.31022534 0.039021108 -0.11747909 4292044120
-0.31028247 0.040996194 -0.11767583 4291913296
-0.30962461 0.042714328 -0.1164476 4292045913
-0.30968171 0.044688225 -0.11664423 4292504925
-0.3097389 0.046664897 -0.11684113 4292827214
-0.30944017 0.048505064 -0.11632831 4292694600
-0.30949742 0.05048399 -0.11652543 4292501080
-0.308846 0.052174933 -0.11530881 4292439648
-0.30890322 0.054152753 -0.11550583 4292509793
-0.30896053 0.056133367 -0.1157031 4292052322
-0.3090179 0.058116827 -0.11590069 4292313956
-0.30907536 0.060103111 -0.11609855 4292436056
-0.30913287 0.062092241 -0.11629669 4292961620
-0.30954486 0.064249717 -0.1172029 4293033051
-0.30960268 0.066247962 -0.11740195 4291981151
-0.31001633 0.06842196 -0.11831226 4289227377
-0.31043151 0.070606343 -0.11922596 4287452513
-0.31048974 0.072620079 -0.11942655 4285942878
-0.31054807 0.074636728 -0.11962745 4284436319
-0.31024912 0.076468937 -0.11911384 4283322717
-0.31030753 0.078487895 -0.11931495 4282863966
-0.31000963 0.080316179 -0.11880331 4282404959
-0.30971289 0.082141154 -0.11829378 4282076766
-0.30977133 0.084161952 -0.11849508 4282077534
-0.31054199 0.086592928 -0.12012231 4282209378
-0.31204018 0.089463487 -0.12320707 4282209121
-0.31209952 0.091514006 -0.12341132 4282274138
-0.31325215 0.094224222 -0.12580587 4282077274
-0.31404731 0.096740179 -0.12748519 4282208347
-0.31484812 0.099276707 -0.12917653 4282404953
-0.31602964 0.10207017 -0.13163172 4282667091
-0.3164669 0.10441247 -0.13259582 4282929745
-0.31690577 0.10676606 -0.13356361 4283388755
-0.31734627 0.10913099 -0.13453506 4284044622
-0.31817055 0.1117627 -0.13627686 4284897356
-0.31900075 0.11441621 -0.13803132 4285816658
-0.319837 0.11709182 -0.13979864 4286145877
-0.31989932 0.11924588 -0.1400132 4285554256
-0.31996173 0.12140312 -0.14022811 4284636241
-0.32002422 0.12356348 -0.1404433 4284310622
-0.34217492 -0.038625099 -0.18210655 4287463532
-0.34370267 -0.036455423 -0.18525226 4286801505
-0.34425807 -0.034249891 -0.18645716 4288440410
-0.34432104 -0.032033719 -0.18667896 4289292885
-0.34340036 -0.029826298 -0.18493558 4289290830
-0.34103784 -0.027664443 -0.18031017 4288504913
-0.3396678 -0.025513822 -0.17766674 4286998361
-0.33148116 -0.023656042 -0.16139475 4284703325
-0.32635134 -0.021797767 -0.15122865 4282603874
-0.32307771 -0.019924449 -0.14477082 4281880415
-0.32029918 -0.018076347 -0.13930088 4281748824
-0.31759107 -0.016272256 -0.13396972 4281683288
-0.31533191 -0.014477947 -0.12953483 4281683290
-0.31349528 -0.012683532 -0.12594403 4282272346
-0.31243104 -0.010840999 -0.12389806 4285481806
-0.31137809 -0.0090151606 -0.12187394 4291507513
-0.31070065 -0.0071611223 -0.12060113 4293407275
-0.31039128 -0.0052694562 -0.1200651 4293145385
-0.31008303 -0.0033816893 -0.11953119 4293079844
-0.31013811 -0.0014433428 -0.11972518 4293079850
-0.31019327 0.00049768254 -0.11991944 4293079591
-0.31024849 0.0024414384 -0.12011398 4292883238
-0.31066751 0.0044527212 -0.12103809 4292622631
-0.31035915 0.0063371421 -0.12050388 4292687660
-0.31077853 0.0083606755 -0.12142921 4292883240
-0.31047016 0.010243768 -0.12089486 4293014310
-0.3108899 0.012279596 -0.1218214 4293079072
-0.30985683 0.01399852 -0.11983245 4293145378
-0.30955192 0.01587024 -0.11930446 4293209891
-0.30924809 0.017738251 -0.11877855 4293209894
-0.30894542 0.019602524 -0.11825473 4293209637
-0.30864388 0.021463141 -0.11773301 4292817187
-0.30869937 0.02341675 -0.11792853 4292227368
-0.3083989 0.02527309 -0.11740877 4291705141
-0.30809957 0.027125798 -0.11689109 4291978578
-0.30815512 0.029080937 -0.11708678 4292111969
-0.30821073 0.031038834 -0.11728273 4292438364
-0.30826646 0.032999508 -0.11747894 4292434507
-0.30796817 0.034846857 -0.11696319 4292302921
-0.30802393 0.036809735 -0.11715963 4292376411
-0.30772671 0.03865293 -0.11664582 4292182112
-0.30813572 0.04074382 -0.11755335 4291788128
-0.30748641 0.042457107 -0.11633063 4291324761
-0.30754229 0.0444244 -0.11652751 4291778636
-0.30759826 0.046394467 -0.11672468 4292439893
-0.30730325 0.048228964 -0.1162148 4292767581
-0.30666035 0.049919214 -0.11500398 4292705126
-0.30671632 0.051887639 -0.11520097 4292047720
-0.30677232 0.053858843 -0.11539826 4291843668
-0.30682841 0.055832889 -0.11559582 4291976269
-0.30688459 0.057809781 -0.11579365 4292633944
-0.30694082 0.059789449 -0.11599179 4292574825
-0.30699715 0.061772 -0.1161902 4290876541
-0.30775377 0.064086676 -0.11780186 4288050291
-0.30781046 0.066081665 -0.11800152 4286469985
-0.30857262 0.068424761 -0.1196254 4284894812
-0.30862966 0.070432357 -0.11982632 4283715419
-0.3093974 0.072804235 -0.12146264 4282993756
-0.3094548 0.07482449 -0.12166481 4282666333
-0.30951229 0.076847658 -0.12186731 4282404958
-0.30921364 0.078682281 -0.12135027 4282536545
-0.30927119 0.080707796 -0.12155297 4282603107
-0.30897364 0.082538515 -0.12103792 4282275426
-0.30938655 0.084767573 -0.12195928 4282208350
-0.31123978 0.087835915 -0.12579396 4282339419
-0.31166106 0.090103298 -0.12673378 4282404439
-0.31171966 0.092164665 -0.12694007 4282469457
-0.31250834 0.094670661 -0.12862401 4282469455
-0.31330264 0.097197108 -0.13032001 4282600786
-0.31410256 0.09974432 -0.13202825 4282864214
-0.31490821 0.10231248 -0.13374874 4283586387
-0.31496802 0.10441802 -0.13395947 4284241743
-0.31540316 0.1067718 -0.13493067 4285159500
-0.31621793 0.1093876 -0.13667144 4286207303
-0.3170386 0.11202507 -0.13842496 4286600774
-0.31786516 0.11468442 -0.14019118 4286734924
-0.31908557 0.11763442 -0.14275672 4286540370
-0.31953633 0.12006973 -0.14376263 4285357133
-0.31959796 0.12223876 -0.14397971 4284570963
-0.31965968 0.12441091 -0.14419711 4286673251
-0.34005454 -0.038619589 -0.18262616 4286081119
-0.34059685 -0.036439121 -0.18381675 4285617496
-0.3406581 -0.034243725 -0.18403749 4287585876
-0.3397584 -0.032048065 -0.18231954 4288898899
-0.33839199 -0.029872727 -0.17965922 4289159759
-0.33704197 -0.027720338 -0.17703088 4288897358
-0.33524689 -0.025604602 -0.17350303 4287849811
-0.3303504 -0.023643516 -0.16371146 4285817431
-0.32779282 -0.021656467 -0.15863964 4283521633
-0.32403579 -0.019784806 -0.15114288 4282077282
-0.32161981 -0.017890329 -0.14635262 4281749082
-0.31925711 -0.016034748 -0.14166816 4281683033
-0.31616822 -0.014283789 -0.13551393 4281682778
-0.31241691 -0.01265166 -0.12801814 4281879129
-0.3113555 -0.010805882 -0.12595855 4283319635
-0.30993974 -0.0090185562 -0.12318143 4288755521
-0.30926636 -0.0071643572 -0.12190496 4292293162
-0.30859774 -0.0053203721 -0.12063769 4292752424
-0.30793381 -0.0034865248 -0.11937943 4292621351
-0.30798769 -0.001554761 -0.11957367 4292686376
-0.30804166 0.00037967396 -0.11976817 4293078823
-0.30809569 0.0023168395 -0.11996296 4293145122
-0.30850855 0.0043210341 -0.12088456 4292751906
-0.308204 0.0061992807 -0.12035334 4292161828
-0.3082583 0.0081446012 -0.12054892 4292162079
-0.30831262 0.010092638 -0.12074482 4292685857
-0.30836704 0.012043404 -0.12094096 4292816930
-0.30699724 0.01367464 -0.11824962 4293080356
-0.30705142 0.01561743 -0.11844498 4293145126
-0.30640048 0.017390072 -0.11721021 4293210409
-0.30645463 0.019331638 -0.11740544 4293144874
-0.30615792 0.021183295 -0.1168888 4292817961
-0.30621216 0.023127006 -0.11708423 4292359982
-0.30591652 0.024974447 -0.11656953 4291904314
-0.30597079 0.026920287 -0.11676519 4291581514
-0.30602515 0.02886888 -0.11696112 4291847249
-0.30607957 0.030820247 -0.11715734 4292503888
-0.3061341 0.032774359 -0.11735381 4292302922
-0.30583945 0.034615915 -0.11684091 4291647312
-0.30589402 0.036572225 -0.11703761 4291652701
-0.30560046 0.038409699 -0.11652675 4291978323
-0.30600339 0.040493183 -0.11743187 4292043083
-0.30536258 0.042201642 -0.11621471 4291519819
-0.3054173 0.044162389 -0.11641186 4291190865
-0.30547208 0.046125911 -0.11660929 4291721065
-0.30449149 0.04768125 -0.11469987 4291912290
-0.30454612 0.049640369 -0.11489688 4292432466
-0.30460086 0.051602267 -0.11509413 4292698709
-0.30465567 0.053566977 -0.11529169 4291713101
-0.30471057 0.055534497 -0.11548954 4291006839
-0.30476552 0.05750481 -0.11568765 4288510065
-0.30516511 0.05963451 -0.11658807 4286995300
-0.30522034 0.061613828 -0.11678708 4285879394
-0.30596855 0.063924186 -0.11839892 4284372066
-0.30602413 0.065915942 -0.11859917 4284567132
-0.30677783 0.068254635 -0.12022328 4283584604
-0.30753684 0.070612267 -0.12185887 4282667102
-0.30830109 0.072989002 -0.12350596 4282273887
-0.30835757 0.0750129 -0.12370945 4282077792
-0.30877018 0.077228986 -0.12464001 4282078051
-0.30882689 0.079262219 -0.12484445 4282339939
-0.30888373 0.081298374 -0.12504917 4282602078
-0.30894059 0.083337456 -0.12525421 4282536280
-0.31079847 0.086406559 -0.12913825 4282469458
-0.31122005 0.088680491 -0.13008945 4282600013
-0.31127778 0.090749815 -0.13029753 4282665289
-0.31133559 0.092822142 -0.13050589 4282862154
-0.31212598 0.095343716 -0.13221213 4283256652
-0.31255248 0.097657256 -0.13317497 4283519568
-0.3129805 0.099981949 -0.1341414 4284177490
-0.31341016 0.10231788 -0.1351116 4285488722
-0.3134689 0.10442358 -0.13532335 4286471757
-0.31427422 0.1070236 -0.13706315 4287191622
-0.31508535 0.10964513 -0.13881563 4287518275
-0.31590232 0.11228836 -0.14058083 4287257671
-0.31710881 0.11521728 -0.14314458 4286735179
-0.31832844 0.11818092 -0.14573626 4286011724
-0.31877837 0.12062617 -0.14675221 4285029460
-0.31922999 0.12308339 -0.14777212 4285819742
-0.33794254 -0.038614146 -0.18314393 4286279004
-0.33800232 -0.036430437 -0.18336454 4285620054
-0.33758792 -0.034240663 -0.18261918 4287325780
-0.33670479 -0.032058023 -0.18091825 4288900179
-0.33582869 -0.0298898 -0.17923111 4289226064
-0.33449817 -0.027745668 -0.17661677 4288897616
-0.33318341 -0.025623903 -0.17403367 4288308050
-0.32921502 -0.023630971 -0.16603734 4287127890
-0.32752734 -0.021597475 -0.16269027 4284767834
-0.32501546 -0.019641979 -0.15766022 4282603618
-0.32422876 -0.017614145 -0.1561489 4281880927
-0.32179159 -0.015726846 -0.15126796 4281748313
-0.31702265 -0.014085404 -0.14162444 4281748314
-0.31283587 -0.01247544 -0.13316581 4281944664
-0.31027597 -0.010770649 -0.12802653 4282533718
-0.30886433 -0.0089802677 -0.12523091 4285349962
-0.30747244 -0.00721221 -0.12247462 4290917426
-0.30681023 -0.00537111 -0.12120847 4292489508
-0.30615267 -0.0035401178 -0.11995137 4292555559
-0.305852 -0.0016654249 -0.11942343 4292881954
-0.30590478 0.00026249391 -0.11961819 4293274147
-0.30595765 0.0021930691 -0.11981322 4293079330
-0.30601057 0.0041263974 -0.12000853 4292490022
-0.30606356 0.0060624117 -0.12020411 4290916390
-0.30611664 0.0080011189 -0.12039996 4290456860
-0.30581701 0.0098688835 -0.1198738 4291767584
-0.30481872 0.011580082 -0.11791696 4292292898
-0.3045235 0.013434283 -0.11739928 4292620578
-0.30422938 0.015284854 -0.11688358 4292686374
-0.3039363 0.017131779 -0.11636991 4292752684
-0.30398917 0.019063544 -0.11656506 4292556848
-0.30369723 0.020906318 -0.11605342 4292164918
-0.30375016 0.022840226 -0.11624879 4291578693
-0.30380318 0.024776833 -0.11644443 4291781973
-0.30351222 0.026614908 -0.11593465 4291981664
-0.30356532 0.028553713 -0.11613049 4291720295
-0.30396271 0.030603159 -0.117033 4291588455
-0.30401605 0.032550748 -0.11722973 4291452248
-0.30372503 0.034386553 -0.11671972 4291582280
-0.30377838 0.036336347 -0.1169167 4291714886
-0.3034884 0.03816814 -0.11640864 4291716179
-0.3038854 0.040244244 -0.11731146 4291984484
-0.30325297 0.04194792 -0.11609978 4291061854
-0.30330646 0.043902151 -0.11629719 4290926675
-0.30336007 0.045859158 -0.11649488 4292048978
-0.30239248 0.04741076 -0.11459345 4292179544
-0.30244595 0.049363412 -0.1147907 4291527784
-0.3024995 0.051318828 -0.11498822 4289690214
-0.30255312 0.053277068 -0.11518605 4287055446
-0.30260682 0.055238094 -0.11538415 4286141023
-0.30266058 0.057201926 -0.11558254 4284436319
-0.30339515 0.059480075 -0.11718245 4283387485
-0.30379149 0.061616104 -0.11808664 4282928989
-0.30453384 0.06392663 -0.11970383 4282864479
-0.30493426 0.066086903 -0.12061754 4283586147
-0.30568454 0.068430357 -0.12225229 4283127910
-0.30714533 0.071149796 -0.12535203 4282537573
-0.3086265 0.073909909 -0.12849507 4282274404
-0.30832404 0.075763166 -0.12796253 4282142560
-0.30909815 0.078188688 -0.12964959 4282142300
-0.3091543 0.080239765 -0.12985678 4282338648
-0.30921054 0.082293801 -0.13006429 4282469459
-0.30890682 0.084147476 -0.12952924 4282600269
-0.31077638 0.08724536 -0.13347895 4282796617
-0.31083325 0.089322738 -0.13368882 4283059014
-0.31089023 0.091403112 -0.13389897 4283517764
-0.31094727 0.09348651 -0.13410944 4284173639
-0.31137124 0.095798001 -0.13507791 4284831053
-0.31179681 0.09812066 -0.13605016 4285357392
-0.31222397 0.10045451 -0.1370261 4286345298
-0.31265268 0.10279965 -0.13800578 4287063891
-0.31308299 0.10515619 -0.13898927 4287655250
-0.31351495 0.10752412 -0.13997655 4287718990
-0.31508252 0.11066633 -0.14331289 4287258188
-0.31590423 0.11333229 -0.14510784 4286733642
-0.31711832 0.11628813 -0.14771548 4286208076
-0.31873778 0.11955454 -0.15116322 4285291348
-0.31919137 0.12202467 -0.15219928 4285097566
-0.33589721 -0.036429215 -0.18388098 4286016345
-0.3354868 -0.034243666 -0.18313716 4286734931
-0.33507812 -0.03206389 -0.18239667 4288505939
-0.33328551 -0.029906742 -0.17880665 4289096019
-0.3324289 -0.02776099 -0.17714258 4288766802
-0.33112779 -0.025643127 -0.17456241 4288373329
-0.32851419 -0.023600671 -0.16927725 4287522131
-0.32813206 -0.021494431 -0.168588 4285358426
-0.32688111 -0.01944484 -0.16610789 4283062884
-0.32521683 -0.017445158 -0.16277471 4281947237
-0.323158 -0.015505633 -0.15862668 4281944921
-0.31950477 -0.013742152 -0.15118884 4281878871
-0.31288067 -0.012332963 -0.13761969 4281879126
-0.30919239 -0.010735277 -0.13010205 4282010199
-0.307423 -0.008983667 -0.12654109 4283384914
-0.3060402 -0.0072154282 -0.12377656 4288820286
-0.30467662 -0.0054690391 -0.12105069 4291441958
-0.30402774 -0.0036438545 -0.11979935 4291572261
-0.30338335 -0.0018285877 -0.11855693 4292685345
-0.30343488 8.9498084e-05 -0.11875159 4292947237
-0.3034865 0.0020102849 -0.11894653 4292948771
-0.30353817 0.0039337501 -0.11914174 4292227365
-0.30324337 0.0057935989 -0.11862084 4290785572
-0.30329508 0.0077191498 -0.11881626 4290194976
-0.30334687 0.0096474085 -0.11901197 4291309096
-0.30236539 0.011351111 -0.11707049 4291572521
-0.30207491 0.013196364 -0.11655781 4291507500
-0.30212656 0.015119554 -0.11675299 4291247415
-0.30149704 0.016876128 -0.11553839 4291513151
-0.30154866 0.018798146 -0.11573347 4291383880
-0.3016004 0.020722916 -0.1159288 4291908427
-0.30165216 0.022650367 -0.11612442 4291914850
-0.30170399 0.02458057 -0.11632032 4291260008
-0.30175593 0.026513467 -0.11651647 4290927955
-0.30180794 0.028449124 -0.11671292 4291321935
-0.30186 0.030387511 -0.11690965 4291783774
-0.30191216 0.03232865 -0.11710665 4291983970
-0.30162475 0.034158759 -0.11659957 4291658335
-0.30167693 0.036102071 -0.1167968 4290931549
-0.30172923 0.038048174 -0.11699429 4290991447
-0.30178159 0.039997019 -0.11719207 4291847250
-0.30149511 0.041822065 -0.11668677 4291852897
-0.30120969 0.043643672 -0.11618345 4291526509
-0.30092531 0.045461919 -0.11568217 4289952104
-0.30064201 0.047276795 -0.11518278 4287521635
-0.30069435 0.049226299 -0.11538065 4286338397
-0.3007468 0.051178593 -0.11557879 4285222490
-0.30079931 0.053133674 -0.1157772 4283451736
-0.30118802 0.055239905 -0.1166745 4282796633
-0.30124077 0.057203863 -0.11687383 4282666073
-0.30196953 0.059482194 -0.11847907 4282404444
-0.30270332 0.061778869 -0.12009551 4282208093
-0.30344224 0.064094044 -0.12172333 4282274655
-0.30384046 0.066258445 -0.12264294 4282668132
-0.30493546 0.068780787 -0.12501332 4282602341
-0.3074621 0.072056137 -0.13036509 4282470752
-0.30895743 0.074846961 -0.13357179 4282404443
-0.30937612 0.077098981 -0.13453758 4282403928
-0.30979636 0.079361901 -0.13550715 4282403412
-0.30948719 0.081234448 -0.1349573 4282600014
-0.30954286 0.083306655 -0.1351676 4282665290
-0.31069759 0.086006828 -0.13766907 4283124552
-0.3107537 0.088096008 -0.1378811 4283714118
-0.31080994 0.090188198 -0.13809341 4284435523
-0.31086624 0.09228342 -0.13830605 4285418305
-0.31055459 0.094157897 -0.13775125 4286729796
-0.31061092 0.096255481 -0.13796413 4286799950
-0.31103557 0.098587289 -0.13894583 4286801489
-0.31146181 0.10093041 -0.13993135 4287394648
-0.31226197 0.10352607 -0.14169824 4287461469
-0.31269279 0.10589659 -0.14269449 4287326803
-0.31350178 0.10853002 -0.14448129 4287127116
-0.31507936 0.11170219 -0.14787489 4286928969
-0.31629217 0.11465686 -0.15050767 4286338118
-0.31751826 0.11764689 -0.15316942 4285355597
-0.31915435 0.12095331 -0.15668967 4284899416
-0.31961173 0.1234488 -0.15774636 4286280804
-0.33380035 -0.036428001 -0.18439563 4287001691
-0.33339384 -0.034246691 -0.18365334 4287063382
-0.33252865 -0.032072403 -0.18195707 4288112723
-0.3316704 -0.02991239 -0.18027458 4288965714
-0.33036751 -0.027776245 -0.17766647 4288767825
-0.32952634 -0.025648415 -0.17601797 4288243023
-0.32913655 -0.023516195 -0.17530814 4287849552
-0.32919317 -0.021367127 -0.17552723 4286603351
-0.32748052 -0.019320291 -0.17206308 4284243551
-0.32622755 -0.017272245 -0.16955455 4282603874
-0.32413429 -0.015311951 -0.1652949 4281946461
-0.32083449 -0.013495432 -0.15851997 4281879638
-0.31331024 -0.012150977 -0.14293957 4281748053
-0.30920938 -0.01058174 -0.13448747 4281878874
-0.30670136 -0.0089032911 -0.12935214 4282468183
-0.30496213 -0.0071740393 -0.12581764 4285218123
-0.30325311 -0.0054720887 -0.12234471 4289867824
-0.30226207 -0.003696922 -0.120368 4290915361
-0.3012813 -0.0019373653 -0.11841189 4292489765
-0.30099019 -8.1721599e-05 -0.11789411 4292881960
-0.30104053 0.0018293434 -0.11808895 4292881957
-0.30109096 0.0037430723 -0.11828408 4291833893
-0.30114147 0.0056594945 -0.11847947 4291244834
-0.30119202 0.007578603 -0.11867515 4290129703
-0.30090189 0.009428205 -0.11815915 4291112496
-0.30027428 0.011199226 -0.11693786 4291574575
-0.29998732 0.013038605 -0.11642801 4291911749
-0.30003783 0.014955369 -0.11662342 4292176730
-0.29975194 0.016790638 -0.11611558 4291984485
-0.29946703 0.018622378 -0.11560971 4291454307
-0.29951757 0.020540744 -0.11580529 4291576648
-0.29956818 0.022461835 -0.11600116 4292295229
-0.2996189 0.024385633 -0.1161973 4292233548
-0.29966965 0.026312131 -0.11639372 4292172882
-0.30005637 0.028344899 -0.11729365 4292243803
-0.30010736 0.030280139 -0.11749095 4291785060
-0.30015841 0.032218132 -0.11768856 4291386963
-0.29987338 0.034045491 -0.11718221 4291453004
-0.29992452 0.03598566 -0.11738002 4290995798
-0.29964057 0.037809037 -0.11687562 4290009170
-0.30002698 0.039874326 -0.11777649 4288961112
-0.29974297 0.041696608 -0.11727198 4287588974
-0.29946002 0.043515533 -0.1167695 4286798184
-0.29917809 0.045331065 -0.11626893 4285681758
-0.29922938 0.047277953 -0.11646745 4283911515
-0.29928076 0.049227633 -0.11666623 4282993498
-0.2993322 0.051180076 -0.11686528 4282665306
-0.29971731 0.053280354 -0.11776509 4282272346
-0.30043975 0.055539936 -0.11937372 4282010972
-0.30049169 0.057510696 -0.11957466 4282142810
-0.30121934 0.059797995 -0.12119549 4282274141
-0.30195209 0.062103752 -0.12282772 4282143073
-0.30268991 0.064428136 -0.1244714 4282208350
-0.30308717 0.066600695 -0.12539987 4282338651
-0.30418104 0.069133677 -0.12779364 4282469724
-0.30706427 0.072608747 -0.13395213 4282535000
-0.30856365 0.075418361 -0.13720202 4282600273
-0.30934864 0.077878579 -0.13895026 4282731343
-0.30940348 0.079959586 -0.13916244 4282993486
-0.3094584 0.082043611 -0.13937491 4283451979
-0.31136388 0.085172229 -0.14348418 4283910468
-0.31067508 0.08685454 -0.14213151 4284631617
-0.31073052 0.088958733 -0.14234604 4285810496
-0.31041569 0.090846457 -0.14178051 4287121724
-0.31084165 0.093176268 -0.14277604 4287580988
-0.31052679 0.095062591 -0.14221038 4287517762
-0.31058246 0.097175226 -0.14242576 4287455053
-0.31138104 0.099760763 -0.14420813 4287788632
-0.31143707 0.10188707 -0.14442495 4287130199
-0.31261805 0.10475034 -0.14701539 4286669140
-0.31305227 0.10714451 -0.14803118 4286733131
-0.31425068 0.1100631 -0.15066043 4287059526
-0.31584975 0.11328109 -0.15413691 4286797384
-0.31747231 0.11654938 -0.15766464 4285880140
-0.31871957 0.11958851 -0.16040118 4285226068
-0.31957835 0.12237785 -0.16231824 4285163868
-0.33176783 -0.034252696 -0.18513116 4286936414
-0.33090797 -0.032078207 -0.18343003 4287458901
-0.33005506 -0.029918035 -0.18174273 4288703570
-0.32920897 -0.027771931 -0.18006912 4288767568
-0.32836959 -0.025639728 -0.17840895 4288242766
-0.32887205 -0.023466779 -0.17956893 4288046414
-0.32848099 -0.021327322 -0.17885065 4287390545
-0.32720622 -0.019246291 -0.17627351 4285226841
-0.32594639 -0.01718659 -0.17372678 4282996836
-0.32513306 -0.015113732 -0.17211846 4281881700
-0.32177916 -0.01327931 -0.16516276 4281879638
-0.3165091 -0.011694914 -0.15417062 4281747801
-0.30960003 -0.010385792 -0.13972279 4281813339
-0.30561379 -0.0088645965 -0.13142399 4282009944
-0.30352691 -0.007177291 -0.12712228 4283123027
-0.30148345 -0.005522301 -0.12291018 4288361022
-0.300161 -0.0037995856 -0.12021571 4291832861
-0.29885674 -0.0020977377 -0.11755835 4292948766
-0.29890588 -0.00019572678 -0.11775316 4292883495
-0.29895505 0.0017089407 -0.11794826 4292423724
-0.29900435 0.003616309 -0.11814361 4291639860
-0.2990537 0.0055263415 -0.11833926 4291711807
-0.29910308 0.007439015 -0.11853517 4290459192
-0.29814786 0.0091400538 -0.11661087 4290991441
-0.29819715 0.01104835 -0.11680632 4292172354
-0.2979137 0.012881892 -0.11629935 4291651924
-0.29796305 0.014792339 -0.11649502 4291193447
-0.29801247 0.016705474 -0.11669098 4291917405
-0.29773003 0.018534392 -0.11618588 4292503886
-0.2977795 0.020449664 -0.11638205 4292440405
-0.29782903 0.022367643 -0.11657852 4292305999
-0.29787868 0.024288338 -0.11677524 4291781719
-0.29792836 0.02621172 -0.11697225 4291713106
-0.29797813 0.028137846 -0.11716952 4292104012
-0.29836035 0.030173156 -0.11807044 4292108116
-0.29841033 0.032108009 -0.11826862 4291652951
-0.2981278 0.033932611 -0.11776308 4290342752
-0.29817784 0.035869643 -0.11796149 4287914342
-0.29822794 0.037809446 -0.11816017 4286206042
-0.29827812 0.039752025 -0.11835915 4285155671
-0.2983284 0.041697338 -0.11855839 4283977821
-0.2980468 0.043516405 -0.11805467 4283190364
-0.2980971 0.045463964 -0.11825415 4282861658
-0.29814753 0.04741431 -0.1184539 4282402905
-0.29819795 0.049367432 -0.11865396 4282075740
-0.29858071 0.051465537 -0.11955894 4281945182
-0.29896486 0.053573593 -0.12046727 4281946207
-0.29968616 0.055841994 -0.12209149 4281946210
-0.29973724 0.057819646 -0.12229407 4282077277
-0.30046386 0.060115974 -0.12393073 4282274395
-0.30119547 0.062430836 -0.12557882 4282405469
-0.30193219 0.064764515 -0.12723853 4282470234
-0.30232847 0.066945277 -0.12817593 4282469202
-0.30377042 0.069666125 -0.13133548 4282731600
-0.30666202 0.073167197 -0.13757724 4282928208
-0.30889818 0.076382108 -0.14242861 4283190093
-0.31006137 0.079067148 -0.14500102 4283648328
-0.30974457 0.080967598 -0.14442718 4284303684
-0.31091666 0.083692953 -0.14702018 4285155394
-0.31097138 0.085810095 -0.14723702 4286138173
-0.31065202 0.087714389 -0.14665802 4286924859
-0.31070676 0.089833826 -0.14687511 4287448890
-0.3107616 0.09195631 -0.14709251 4287973690
-0.3108165 0.094081879 -0.14731023 4287778109
-0.31087148 0.096210487 -0.14752826 4288110668
-0.31092656 0.098342195 -0.14774661 4287719507
-0.31173244 0.10095531 -0.14956509 4287454540
-0.31216541 0.10334519 -0.1505895 4286994248
-0.31336203 0.10624762 -0.15324256 4286731846
-0.3138012 0.10867067 -0.15428168 4286928710
-0.31501564 0.11162971 -0.15697488 4286928455
-0.3166368 0.11489481 -0.16053706 4286010186
-0.31748506 0.11765549 -0.16245152 4284830800
-0.31833965 0.12043981 -0.16438052 4284900442
-0.32000998 0.12382893 -0.16805193 4286150242
-0.32974088 -0.032082744 -0.18586628 4287590743
-0.32934201 -0.029912474 -0.18512668 4288440658
-0.32849425 -0.027757706 -0.18343399 4288570959
-0.32810035 -0.025602898 -0.1827042 4288177485
-0.32681906 -0.023490148 -0.18008955 4288111947
-0.32687369 -0.021332281 -0.18031158 4287914572
-0.32692841 -0.019171417 -0.18053392 4286472021
-0.32610044 -0.017069237 -0.17888069 4284046429
-0.32440984 -0.015049595 -0.17539307 4282210146
-0.32189602 -0.013133856 -0.17015365 4281683038
-0.31820586 -0.011380693 -0.16241048 4281747802
-0.30849493 -0.010349086 -0.14185749 4281747803
-0.30380747 -0.0089101326 -0.13198274 4281813337
-0.30139396 -0.0072695576 -0.12694274 4282468694
-0.29971969 -0.0055723698 -0.12347388 4285414730
-0.29807416 -0.0039015743 -0.12006471 4291506989
-0.29745269 -0.0021004693 -0.11883473 4292817195
-0.29683548 -0.0003089814 -0.11761332 4292687673
-0.29688355 0.0015893775 -0.11780865 4292299586
-0.29693165 0.0034903854 -0.11800427 4291984730
-0.29697984 0.0053940574 -0.11820015 4292049755
-0.29702812 0.0073004076 -0.1183963 4290264899
-0.29608569 0.0089965034 -0.11648014 4290469721
-0.29613385 0.010898491 -0.11667583 4292171324
-0.29618207 0.012803164 -0.11687181 4292699723
-0.29623035 0.014710517 -0.11706809 4292505177
-0.29627869 0.016620563 -0.11726461 4292378208
-0.29599869 0.018446693 -0.11676036 4292243038
-0.29604709 0.020358898 -0.11695711 4291844435
-0.29609558 0.022273788 -0.11715414 4291645000
-0.29614413 0.024191389 -0.11735147 4291780432
-0.29619274 0.026111666 -0.11754905 4291916128
-0.29624143 0.028034706 -0.11774692 4291326311
-0.29629016 0.029960429 -0.11794508 4289620576
-0.29633901 0.031888891 -0.11814351 4287717466
-0.29638788 0.033820093 -0.11834222 4286403675
-0.29643685 0.035754025 -0.11854122 4284631900
-0.29648587 0.037690733 -0.11874049 4283320920
-0.29653496 0.039630141 -0.11894006 4282795864
-0.2972441 0.041824233 -0.12055254 4282337882
-0.29762527 0.043905668 -0.12146363 4282010972
-0.29734299 0.045730095 -0.12095444 4282011486
-0.29739252 0.047687173 -0.12115583 4282208351
-0.29744214 0.049647089 -0.12135748 4282077283
-0.29782391 0.051752973 -0.12227111 4281945442
-0.29820704 0.053868838 -0.12318803 4282011487
-0.29892725 0.056146145 -0.12482811 4282273885
-0.29897749 0.058130693 -0.12503231 4282404442
-0.29970291 0.060436077 -0.12668484 4282535765
-0.30077514 0.062924542 -0.12908213 4282731857
-0.30151317 0.06527216 -0.13076355 4282797134
-0.30225644 0.067638963 -0.13245693 4282927434
-0.30370685 0.070383832 -0.13566934 4283451718
-0.30697998 0.074109107 -0.14279714 4284041028
-0.30886757 0.077166155 -0.14695245 4284696129
-0.30966419 0.079672754 -0.14876594 4285810238
-0.31046668 0.082200415 -0.15059288 4286661947
-0.3105205 0.084326111 -0.1508116 4287121210
-0.31095105 0.086669996 -0.15184042 4287383356
-0.31062835 0.088586651 -0.15124999 4287645754
-0.31068239 0.090721518 -0.15146968 4287645499
-0.31073654 0.092859454 -0.15168966 4287712315
-0.31079072 0.09500052 -0.15190996 4287780161
-0.31084502 0.097144663 -0.15213059 4287781197
-0.31165528 0.099769399 -0.15397881 4287714886
-0.31209001 0.10217149 -0.15501933 4287452740
-0.31290936 0.10483509 -0.15688881 4287190086
-0.31373477 0.1075213 -0.15877223 4286796614
-0.31495655 0.1104927 -0.16151065 4286272070
-0.31540409 0.1129626 -0.16258167 4285484618
-0.31704202 0.11626802 -0.16621941 4284632398
-0.31789848 0.11905961 -0.16817388 4284373077
-0.31876141 0.12187532 -0.17014325 4285493089
-0.32721701 -0.032091167 -0.18541448 4287395420
-0.32682359 -0.029929319 -0.18467972 4287850324
-0.32598808 -0.027782831 -0.18299656 4288308046
-0.32559952 -0.025636306 -0.18227153 4288045902
-0.32433683 -0.023531506 -0.17967065 4288111436
-0.32439014 -0.021381931 -0.17989285 4288176973
-0.32488075 -0.019202868 -0.18105386 4287258450
-0.32449698 -0.017073862 -0.18033816 4284963671
-0.32281774 -0.015054015 -0.17684023 4282800483
-0.32074204 -0.013100305 -0.17248912 4281684581
-0.31625158 -0.011424948 -0.16294801 4281682268
-0.30963969 -0.010066294 -0.14884393 4281682267
-0.30200726 -0.008955474 -0.13253976 4281682011
-0.29961887 -0.0073170769 -0.12750264 4281878875
-0.29762432 -0.0056688869 -0.12331015 4283253848
-0.2963331 -0.0039537451 -0.12062857 4289934404
-0.29538801 -0.0022073989 -0.1186905 4292692542
-0.29477897 -0.00042147297 -0.11747468 4292110176
-0.29482588 0.0014705996 -0.11767025 4291526753
-0.29487288 0.0033653064 -0.11786611 4289944408
-0.29491994 0.0052626771 -0.11806224 4290204739
-0.29464036 0.0070952005 -0.11755497 4290534466
-0.29468748 0.0089946715 -0.11775132 4290730830
-0.29473463 0.010896806 -0.11794795 4290924096
-0.29478189 0.012801648 -0.11814483 4291782744
-0.29482919 0.014709148 -0.118342 4292173661
-0.29455057 0.016535945 -0.11783656 4292500821
-0.29459795 0.018445618 -0.11803395 4292302161
-0.29464537 0.02035794 -0.11823162 4292105808
-0.29469284 0.022272978 -0.11842956 4291123031
-0.29474041 0.024190718 -0.11862779 4289748826
-0.29478803 0.026111173 -0.11882631 4288373856
-0.29451033 0.02793188 -0.11832253 4287192164
-0.29455802 0.029854501 -0.11852127 4285485918
-0.29460579 0.031779893 -0.11872029 4284042841
-0.29465359 0.033707973 -0.11891959 4283123800
-0.29502717 0.035754297 -0.11982308 4282664537
-0.29540205 0.0378103 -0.12072989 4282206810
-0.2957783 0.039876036 -0.12164009 4282339164
-0.29648626 0.042078573 -0.12326817 4282798689
-0.29653484 0.044036884 -0.1234706 4282077539
-0.29658347 0.045998011 -0.1236733 4282012258
-0.29663217 0.047961924 -0.12387632 4282339167
-0.29701281 0.050069474 -0.12479798 4282207837
-0.29739478 0.052187011 -0.12572308 4282338655
-0.29777813 0.054314606 -0.12665157 4282469724
-0.29849952 0.056605339 -0.12831292 4282731602
-0.298549 0.05860028 -0.12851912 4282796879
-0.29961601 0.06108081 -0.13093071 4282927692
-0.30035019 0.06342338 -0.13262206 4283451206
-0.30143601 0.065956481 -0.13507664 4283909442
-0.30218309 0.068342328 -0.13679786 4284368192
-0.30328822 0.070929401 -0.13929655 4285351232
-0.30657104 0.074683547 -0.14652166 4286334269
-0.30809319 0.077564053 -0.14992897 4286924602
-0.30963746 0.080489285 -0.15338594 4287449401
-0.31006676 0.08282873 -0.15442352 4287646008
-0.30974323 0.084753282 -0.1538267 4287580474
-0.31055084 0.08732409 -0.15568687 4287449662
-0.31022599 0.08925017 -0.15508731 4287318591
-0.31027922 0.091396824 -0.15530919 4287318588
-0.31033254 0.093546569 -0.15553141 4287777338
-0.31076431 0.095932521 -0.15657669 4287646783
-0.31119773 0.098330274 -0.15762615 4287648070
-0.31201556 0.10098348 -0.15951231 4287452230
-0.31283945 0.10365925 -0.16141266 4286994506
-0.31328091 0.10610267 -0.16248156 4286010446
-0.31489873 0.10934179 -0.16611196 4285288526
-0.31574425 0.11209299 -0.16806242 4284764238
-0.31579947 0.11432023 -0.16829266 4284043600
-0.31705236 0.11738625 -0.17113206 4283979090
-0.31913456 0.12106722 -0.17578006 4285294685
-0.32432485 -0.029946033 -0.18423657 4287588437
-0.3239384 -0.027798072 -0.1835098 4288045134
-0.32268432 -0.025683334 -0.18090236 4288045902
-0.32187375 -0.023572536 -0.17925531 4288111181
-0.32149684 -0.021453226 -0.17854768 4288242252
-0.32154879 -0.019313119 -0.1787699 4287849037
-0.32074761 -0.017230464 -0.17714162 4286144596
-0.32037526 -0.015126922 -0.17644313 4283915617
-0.31791529 -0.013217336 -0.1712137 4282669159
-0.31470513 -0.011428915 -0.16435368 4281813857
-0.30701533 -0.010193605 -0.14776433 4281682266
-0.30021313 -0.0090006515 -0.13309501 4281551454
-0.29784971 -0.0073644081 -0.12806076 4281552230
-0.29587585 -0.0057184459 -0.12387065 4282141543
-0.2942695 -0.0040546525 -0.12047736 4286136665
-0.29366219 -0.0022619108 -0.11925404 4290135872
-0.29305902 -0.0004786831 -0.11803923 4290073429
-0.29310489 0.0014103086 -0.11823538 4290799702
-0.29315084 0.0033019567 -0.11843179 4289485397
-0.29319683 0.0051962538 -0.11862849 4289878597
-0.2929197 0.0070259436 -0.11812208 4290671952
-0.29296571 0.0089223552 -0.118319 4290533456
-0.29268953 0.010747995 -0.11781448 4290659904
-0.29273564 0.012646537 -0.11801162 4291649353
-0.2927818 0.01454775 -0.11820904 4292439131
-0.29282802 0.016451642 -0.11840673 4292506210
-0.29287434 0.018358212 -0.1186047 4290731103
-0.29324338 0.020357015 -0.11950633 4289089362
-0.2932899 0.022272199 -0.11970519 4287581781
-0.29333645 0.024190085 -0.11990435 4285747033
-0.29338312 0.026110681 -0.12010377 4284304986
-0.29342979 0.02803402 -0.12030349 4283386460
-0.29347658 0.029960062 -0.12050348 4282665051
-0.2935234 0.03188882 -0.12070376 4282141020
-0.29357031 0.033820335 -0.12090431 4281945180
-0.29394168 0.035870444 -0.12181359 4281945438
-0.29398879 0.037810717 -0.12201505 4281945953
-0.29468843 0.039999876 -0.12364234 4282339936
-0.29539287 0.042206734 -0.12528096 4283191648
-0.29577079 0.044299796 -0.12620665 4282339422
-0.29548824 0.046133175 -0.12568866 4282142813
-0.29619801 0.04837694 -0.12734073 4282402904
-0.29657882 0.050496176 -0.12827402 4282337106
-0.29696101 0.052625518 -0.12921079 4282731347
-0.29768097 0.054915622 -0.13088724 4282994004
-0.29840598 0.057224397 -0.13257563 4283189322
-0.29845476 0.059233263 -0.13278422 4283647556
-0.29952759 0.061734501 -0.13523573 4284041026
-0.30026561 0.064095818 -0.13695487 4285154368
-0.30100879 0.066476598 -0.13868631 4286268220
-0.30175728 0.068877019 -0.14043021 4286989881
-0.30286494 0.071480788 -0.14296235 4287448888
-0.30579209 0.075070962 -0.14948522 4287579704
-0.30842942 0.078566417 -0.15537567 4287449144
-0.30923241 0.081110366 -0.15724497 4287384121
-0.30928445 0.083252601 -0.15746741 4287449145
-0.30933654 0.085397959 -0.15769017 4287514939
-0.30976665 0.087765478 -0.15874295 4287383614
-0.30944094 0.089697912 -0.15813667 4287121724
-0.30949327 0.091852546 -0.15836039 4287121979
-0.30992392 0.094241157 -0.15941535 4287581756
-0.31035617 0.09664163 -0.16047451 4287517507
-0.31079015 0.099053994 -0.16153789 4286796872
-0.31238228 0.10221988 -0.16514796 4285944137
-0.3128241 0.10467115 -0.16623041 4285222991
-0.31444633 0.10791467 -0.16990964 4284371797
-0.31450036 0.11013975 -0.17014068 4283782230
-0.31534797 0.11290951 -0.17211819 4283782741
-0.31580147 0.11542583 -0.17322919 4284309077
-0.31787455 0.11909212 -0.17790647 4285295962
-0.3218455 -0.029962609 -0.18379708 4287327579
-0.32146433 -0.027822882 -0.18307507 4287390289
-0.32022858 -0.025716128 -0.1804814 4287849550
-0.31942961 -0.023613248 -0.17884335 4288045902
-0.31863695 -0.021523725 -0.17721835 4288111179
-0.31826818 -0.019421695 -0.17652147 4288111436
-0.31790093 -0.017324813 -0.17582759 4286997332
-0.3162958 -0.015333671 -0.17241983 4284899421
-0.31471518 -0.013369919 -0.16906424 4283259751
-0.31196937 -0.011552775 -0.16315159 4282013032
-0.30260444 -0.010520425 -0.14271557 4281683038
-0.29842508 -0.0090457015 -0.13364847 4281486693
-0.29608646 -0.0074115954 -0.12861723 4281357168
-0.29413316 -0.0057678199 -0.12442949 4281683308
-0.29254338 -0.0041062976 -0.12103803 4283190372
-0.2916204 -0.0023677452 -0.11910953 4287973711
-0.29134467 -0.00053571927 -0.1186021 4289948507
-0.29138952 0.0013502212 -0.11879881 4290537561
-0.29143441 0.0032388184 -0.11899581 4289092180
-0.29115963 0.005066216 -0.11849022 4289351495
-0.29120454 0.0069569205 -0.11868744 4290536269
-0.29093078 0.0087802736 -0.11818377 4290669144
-0.29097575 0.010673115 -0.11838119 4290929750
-0.29070297 0.012492465 -0.11787948 4290603858
-0.290748 0.014387436 -0.11807714 4289818204
-0.29079309 0.016285071 -0.11827508 4289030498
-0.29083827 0.018185377 -0.11847328 4286993504
-0.29152089 0.020266529 -0.1200757 4284958806
-0.29188672 0.022271415 -0.12098103 4283778386
-0.29193231 0.024189455 -0.12118108 4282861140
-0.29229957 0.026209762 -0.12209033 4282206039
-0.29202366 0.028033677 -0.12158206 4281878875
-0.29206946 0.029959865 -0.12178297 4281748830
-0.2921153 0.03188879 -0.12198416 4281749346
-0.2921612 0.033820435 -0.12218565 4281814882
-0.2925292 0.03587072 -0.12309802 4281815137
-0.2925753 0.03781113 -0.12330043 4282012001
-0.29326913 0.040000439 -0.124933 4282339678
-0.29429552 0.042335369 -0.1273008 4282797657
-0.29467118 0.044432376 -0.12823242 4282534996
-0.29471803 0.046403848 -0.12843806 4282469714
-0.29575914 0.048796263 -0.13084109 4282599249
-0.29614013 0.050927315 -0.13178614 4282730319
-0.2965225 0.053068567 -0.13273479 4283319879
-0.29724365 0.055372238 -0.13443312 4283844419
-0.29831091 0.057852037 -0.13689788 4284695615
-0.29870126 0.06003641 -0.13786621 4286071100
-0.29909304 0.06223128 -0.13883822 4286923321
-0.30017957 0.064777732 -0.14134869 4287447862
-0.30092666 0.06717784 -0.14310881 4287710518
-0.30167907 0.069597848 -0.14488165 4287580215
-0.30243692 0.072038025 -0.14666742 4287449400
-0.30610716 0.076047048 -0.15490742 4287449401
-0.30689767 0.078569748 -0.15676895 4287515194
-0.30769399 0.081113845 -0.15864432 4287515193
-0.30811986 0.083467551 -0.15969923 4287252792
-0.30817094 0.085616976 -0.15992342 4287252538
-0.30859861 0.087989382 -0.16098322 4287253054
-0.30864993 0.090148948 -0.16120847 4287254335
-0.30907944 0.092540219 -0.16227327 4287123522
-0.30951053 0.094943412 -0.16334222 4286533698
-0.31032577 0.097597681 -0.16526477 4285681224
-0.31076172 0.10002977 -0.16634578 4284895053
-0.31236431 0.10322655 -0.17001942 4283977297
-0.31280828 0.10569812 -0.17112003 4283715412
-0.31364828 0.108445 -0.1731016 4283913814
-0.31449467 0.11121574 -0.17509836 4284112985
-0.31494701 0.11373524 -0.17621985 4284769882
-0.31620681 0.11682976 -0.17913811 4286214235
-0.31981266 -0.029973669 -0.18430616 4287002981
-0.31900939 -0.027847536 -0.18264395 4286670167
-0.31821251 -0.025735047 -0.18099502 4287586895
-0.31784117 -0.023618307 -0.18028709 4287914574
-0.31705359 -0.021528598 -0.1786575 4287979852
-0.3154476 -0.019503171 -0.17521529 4288110926
-0.31467831 -0.017447418 -0.17362447 4287521876
-0.31310886 -0.01547032 -0.17026038 4285555291
-0.31038302 -0.013628346 -0.16433273 4283522147
-0.30583951 -0.012023035 -0.15437414 4282146667
-0.30077773 -0.010563767 -0.143262 4281619560
-0.29698473 -0.009049085 -0.13495778 4281421932
-0.29399675 -0.0075022504 -0.12843484 4281226097
-0.29207057 -0.0058630155 -0.12426417 4281290606
-0.29082295 -0.0041577625 -0.12159709 4281684332
-0.28990924 -0.0024217432 -0.11966988 4285616226
-0.2896359 -0.00059257325 -0.11916323 4289357399
-0.28967968 0.0012903385 -0.11936052 4290470223
-0.28972352 0.0031758917 -0.11955807 4289619800
-0.28976741 0.0050641014 -0.1197559 4289618012
-0.28949499 0.0068881363 -0.11925108 4289814616
-0.28953895 0.0087784538 -0.11944912 4289097053
-0.28926754 0.010598493 -0.11894625 4288505951
-0.28899705 0.01241505 -0.11844531 4287324508
-0.28904104 0.014306984 -0.11864353 4285356123
-0.28908512 0.016201584 -0.11884203 4284239193
-0.28912923 0.018098876 -0.11904081 4283385432
-0.28980395 0.020176379 -0.12064335 4282599255
-0.29080245 0.022363679 -0.12296741 4282075479
-0.29052794 0.024188789 -0.12245801 4281944663
-0.29089183 0.026209272 -0.12337035 4281879385
-0.29061732 0.028033335 -0.12286083 4281814110
-0.29066208 0.029959669 -0.12306268 4281814881
-0.29070696 0.031888742 -0.12326479 4281815138
-0.29075187 0.033820555 -0.12346719 4281880416
-0.29143718 0.035987269 -0.12509787 4282077023
-0.29148239 0.037931126 -0.12530154 4282339676
-0.29217264 0.040124733 -0.12694459 4282471001
-0.29319414 0.042464402 -0.12932771 4282733143
-0.29422626 0.044831041 -0.13173568 4282666325
-0.29427233 0.046812821 -0.13194333 4282665805
-0.29598594 0.049503986 -0.13587525 4283057734
-0.29636958 0.051654931 -0.13683817 4284041027
-0.29675466 0.053816222 -0.13780481 4285612606
-0.29748186 0.056142773 -0.13953662 4286792249
-0.29821426 0.058488518 -0.14128092 4287185719
-0.29860613 0.060689468 -0.14226465 4287644729
-0.29899946 0.062901109 -0.14325225 4287972666
-0.29974255 0.065296046 -0.14502282 4287907384
-0.30049098 0.067710884 -0.14680628 4287776567
-0.3012448 0.070145875 -0.14860269 4287645751
-0.30200407 0.072601229 -0.15041228 4287711544
-0.3049483 0.076246887 -0.15711568 4287711800
-0.30573493 0.078775041 -0.15898958 4287646266
-0.30652735 0.081324682 -0.1608775 4287514938
-0.30695078 0.083683245 -0.16193941 4287384125
-0.30737582 0.086053558 -0.16300559 4287450689
-0.30818027 0.08865796 -0.16492306 4287189576
-0.30861008 0.091056727 -0.16600125 4286142031
-0.30866075 0.093235485 -0.16622952 4285419857
-0.30947465 0.095890261 -0.16817047 4284699211
-0.31029463 0.09856791 -0.17012617 4283846222
-0.31073263 0.10102002 -0.17122529 4283649873
-0.31195322 0.10399275 -0.17408232 4283716949
-0.31239775 0.10647977 -0.17519778 4284177752
-0.31323978 0.10924525 -0.17720687 4284966233
-0.31741363 -0.027852958 -0.18409434 4286605404
-0.31578794 -0.025767444 -0.18057658 4287192400
-0.31500864 -0.023676235 -0.1789497 4287848782
-0.31423539 -0.021598212 -0.17733568 4288045389
-0.31346822 -0.019533258 -0.17573437 4288045135
-0.31270692 -0.017481158 -0.17414561 4287717972
-0.31075796 -0.015540019 -0.16989785 4286209883
-0.30768734 -0.013739367 -0.16313691 4283652703
-0.30322668 -0.012140278 -0.15325999 4282146664
-0.29895729 -0.01060695 -0.14380667 4281490546
-0.29520503 -0.0090939701 -0.13550748 4281357425
-0.29224882 -0.0075489562 -0.12898815 4281225840
-0.29034287 -0.0059118946 -0.12481986 4281095282
-0.28910807 -0.0042090528 -0.12215439 4281226097
-0.28851834 -0.0024244373 -0.12093431 4282995562
-0.28793266 -0.00064923271 -0.11972266 4287315790
-0.28828919 0.0012879313 -0.1206246 4289614659
-0.288647 0.0032342959 -0.12152985 4289098336
-0.28837499 0.0050619883 -0.1210218 4288441966
-0.28841797 0.0069529871 -0.12122083 4287587175
-0.28814691 0.0087766349 -0.1207147 4285552732
-0.28787687 0.010596821 -0.12021059 4284370517
-0.28760776 0.012413526 -0.11970843 4283450966
