# .PCD v0.7 - Point Cloud Data file format
VERSION 0.7
FIELDS x y z rgba
SIZE 4 4 4 4
TYPE F F F U
COUNT 1 1 1 1
WIDTH 992
HEIGHT 1
VIEWPOINT 0 0 0 1 0 0 0
POINTS 992
DATA ascii
-0.31361049 -0.00066393521 -0.033404574 4293213495
-0.31368056 0.001012692 -0.033551969 4293146162
-0.31375071 0.0026916787 -0.033699591 4293349194
-0.31413969 0.0044288314 -0.034345824 4293220719
-0.31389135 0.0060567078 -0.033995412 4293157475
-0.31396183 0.0077427654 -0.034143645 4293027407
-0.31403238 0.0094311889 -0.034292087 4293030995
-0.3137849 0.011056248 -0.033942945 4293419879
-0.31353825 0.012678776 -0.033595018 4293479764
-0.31329241 0.014298862 -0.033248365 4293216321
-0.31304744 0.015916457 -0.032902978 4292699223
-0.31248942 0.017456807 -0.032067481 4292785823
-0.31255993 0.019144349 -0.032215852 4293383075
-0.31231746 0.020754661 -0.031874139 4293514666
-0.31238809 0.022444436 -0.032022696 4293567130
-0.3121464 0.024052229 -0.031682201 4293032556
-0.31221709 0.025744282 -0.031830974 4293227868
-0.31228793 0.027438715 -0.031979926 4293300094
-0.31235883 0.029135576 -0.032129116 4293241747
-0.31211793 0.030740628 -0.031789791 4292852631
-0.31187785 0.032343365 -0.031451717 4292589713
-0.31194887 0.034042392 -0.031601083 4292259993
-0.31201997 0.035743821 -0.031750653 4292321171
-0.31178069 0.037344024 -0.031413741 4292652165
-0.3109256 0.038731106 -0.030111358 4292854678
-0.31099659 0.040429767 -0.030260695 4291937697
-0.3107605 0.042020895 -0.029928589 4291018652
-0.31083161 0.043721896 -0.030078115 4290624404
-0.3109028 0.045425322 -0.030227875 4289836435
-0.31097406 0.047131173 -0.030377856 4289964434
-0.31135306 0.048959445 -0.031010576 4290153860
-0.31142467 0.050672695 -0.031161198 4290416251
-0.31149638 0.052388392 -0.031312034 4292063877
-0.31095329 0.053851895 -0.030498136 4292591510
-0.31102499 0.055567458 -0.030648947 4292330399
-0.31109682 0.05728548 -0.030799983 4292791454
-0.3111687 0.059005979 -0.03095125 4292985755
-0.3112407 0.060728934 -0.031102726 4293107068
-0.31131279 0.062454365 -0.031254418 4293623909
-0.31169263 0.064324617 -0.031889401 4293416785
-0.31207371 0.066202842 -0.032526527 4292436827
-0.31245598 0.068089128 -0.033165738 4289228916
-0.31252885 0.069832161 -0.03331897 4284443519
-0.31291255 0.071731582 -0.033960719 4282476412
-0.31361029 0.073796496 -0.035096034 4282215039
-0.31399751 0.075715318 -0.03574371 4282345599
-0.31438604 0.077642366 -0.036393557 4282542453
-0.31445995 0.079411075 -0.036549047 4287005042
-0.31488973 -0.017070306 -0.03809439 4288518784
-0.31495905 -0.015391551 -0.038242761 4284641661
-0.314704 -0.013739409 -0.037879933 4282475138
-0.31477338 -0.012058554 -0.03802849 4282015606
-0.31419659 -0.010443191 -0.037158228 4282278519
-0.3136234 -0.0088352812 -0.036293454 4282016624
-0.31305373 -0.0072347522 -0.035434071 4282015855
-0.31280476 -0.0056007053 -0.035080355 4282343281
-0.3122403 -0.004012431 -0.034228884 4285422707
-0.31167933 -0.0024313692 -0.033382732 4290336083
-0.31174824 -0.00076195586 -0.03353028 4292566871
-0.31150344 0.00085948972 -0.033182845 4293092423
-0.31157243 0.002531077 -0.033330597 4293408307
-0.31195554 0.0042603146 -0.033974167 4293280589
-0.31202483 0.0059390836 -0.034122545 4292697958
-0.31209424 0.0076202275 -0.034271114 4292836448
-0.31184942 0.0092408787 -0.033923607 4293160522
-0.31191888 0.010924234 -0.034072403 4293221208
-0.31167492 0.012542275 -0.033726171 4293089637
-0.31143177 0.014157836 -0.033381127 4293155911
-0.31118941 0.015770977 -0.033037338 4293230942
-0.31063771 0.017307328 -0.032204766 4293378969
-0.31070718 0.018989962 -0.032353479 4293641376
-0.31077671 0.020675002 -0.032502413 4293970590
-0.3105368 0.022280768 -0.032162271 4293963138
-0.31029773 0.023884188 -0.0318234 4293301097
-0.31036738 0.025571357 -0.031972513 4293237889
-0.31043711 0.027260929 -0.032121852 4292063387
-0.31050694 0.028952869 -0.032271378 4291281571
-0.31026864 0.030553611 -0.03193365 4290954405
-0.31033856 0.032247864 -0.032083403 4291805081
-0.31010103 0.033846159 -0.031746861 4291542431
-0.31017107 0.035542719 -0.031896811 4292324245
-0.30932337 0.036933418 -0.030594796 4292258179
-0.30908903 0.038522679 -0.030263117 4292456579
-0.30915898 0.040216483 -0.030412804 4292523160
-0.30892542 0.04180342 -0.030082243 4292593315
-0.30899543 0.043499563 -0.030232161 4292793508
-0.30906555 0.04519815 -0.030382276 4291609250
-0.30913576 0.046899136 -0.030532608 4290553739
-0.30951005 0.048721828 -0.031164527 4290420348
-0.30958056 0.050430208 -0.03131552 4290422143
-0.3096512 0.052141011 -0.031466726 4291476363
-0.31002709 0.053981405 -0.032101531 4292726432
-0.31009799 0.055699646 -0.032253392 4293054886
-0.31016904 0.057420328 -0.032405462 4293120422
-0.31054655 0.0592786 -0.033043295 4293246873
-0.31061789 0.061006781 -0.033196032 4293501823
-0.31099683 0.06287805 -0.033836402 4294287988
-0.31137699 0.064757325 -0.034478854 4294276717
-0.31144884 0.066498064 -0.034632698 4294087295
-0.31183046 0.068390474 -0.03527775 4294685343
-0.31190264 0.070138834 -0.035432272 4288583585
-0.31228569 0.072044484 -0.03607991 4283458425
-0.31298268 0.074116603 -0.037225682 4282476411
-0.31336927 0.076041751 -0.037879288 4283852664
-0.31375709 0.077975146 -0.038535058 4283854962
-0.31383029 0.079749271 -0.038691871 4287663734
-0.31364736 -0.017073628 -0.039223701 4287271808
-0.31371579 -0.015394741 -0.039372869 4283459185
-0.31346181 -0.013742464 -0.039009113 4282014838
-0.3132087 -0.012092894 -0.03864672 4281818485
-0.31327721 -0.010412102 -0.038796045 4282147191
-0.31238613 -0.0088379513 -0.037418187 4281688437
-0.3115032 -0.0072756559 -0.036052983 4281752429
-0.3109417 -0.0056845834 -0.035199165 4281686894
-0.310072 -0.004143483 -0.033854529 4282341751
-0.30982909 -0.0025239191 -0.033507541 4285614942
-0.30927786 -0.00095425936 -0.032669555 4289549922
-0.3093456 0.00070768036 -0.032817218 4292840045
-0.30941343 0.0023719128 -0.032965083 4293539379
-0.30948138 0.0040385048 -0.033113163 4293080890
-0.30954942 0.005707426 -0.033261437 4292757573
-0.30961755 0.0073786699 -0.033409931 4292770134
-0.30968574 0.0090522729 -0.033558641 4293297748
-0.30975407 0.010728236 -0.03370754 4292960343
-0.30951354 0.012339494 -0.03336418 4292956251
-0.30927381 0.013948284 -0.033022035 4292768352
-0.30934221 0.015626339 -0.033171121 4293241205
-0.30879676 0.017158698 -0.032341391 4293046672
-0.30886516 0.018836509 -0.03249047 4293689196
-0.30893365 0.020516694 -0.032639746 4293755756
-0.3086963 0.022118084 -0.032301228 4293899890
-0.30845973 0.023717135 -0.031963907 4293306753
-0.30852833 0.025399456 -0.032113377 4293377434
-0.308597 0.027084166 -0.032263059 4291017118
-0.30866578 0.028771266 -0.032412957 4289970598
-0.30873466 0.030460762 -0.032563072 4289704093
-0.30849889 0.032057084 -0.032226935 4290557845
-0.30826393 0.033651106 -0.031892002 4290227356
-0.30772752 0.035143163 -0.031075649 4290753433
-0.30749488 0.036730442 -0.030744288 4290884242
-0.30726302 0.038315468 -0.030414108 4291735677
-0.30703199 0.039898288 -0.030085115 4292518021
-0.30680168 0.041478872 -0.029757297 4292849819
-0.30687052 0.043167744 -0.029907348 4293120678
-0.30693948 0.044859007 -0.030057611 4292593827
-0.3070085 0.046552703 -0.030208096 4291404167
-0.30737719 0.048367061 -0.030837553 4291405692
-0.30774707 0.050189111 -0.031469066 4292003474
-0.30781659 0.051895056 -0.031620637 4292397471
-0.30879369 0.053983793 -0.033223376 4292925099
-0.30886373 0.055702161 -0.033376049 4293120937
-0.30923837 0.057555571 -0.03401589 4293184417
-0.30930871 0.059281401 -0.034169234 4293376914
-0.30968475 0.061147779 -0.034811635 4294160003
-0.31006199 0.063022152 -0.035456128 4294545535
-0.31013286 0.064760536 -0.035610579 4294945680
-0.31051153 0.066648021 -0.036257677 4294693815
-0.31089142 0.068543613 -0.036906924 4294704610
-0.3109628 0.070294678 -0.037062488 4293840089
-0.31134412 0.072203517 -0.037714299 4287524481
-0.31203845 0.074279323 -0.038867492 4284245875
-0.31242329 0.07620772 -0.039525341 4286613622
-0.31304851 -0.017029064 -0.041386642 4286745466
-0.31311628 -0.015344911 -0.041537073 4283391589
-0.31286162 -0.013687556 -0.041169733 4282078823
-0.31228703 -0.012064397 -0.040288627 4281752177
-0.31203496 -0.010414911 -0.039925288 4281818484
-0.31114867 -0.0088405944 -0.03854309 4281425268
-0.31027046 -0.0072781835 -0.037173599 4281555052
-0.30940023 -0.0057274983 -0.035816614 4281750888
-0.30822995 -0.0042309519 -0.033977114 4281816939
-0.30768338 -0.002660702 -0.033139583 4282666342
-0.30744466 -0.0010505453 -0.032796692 4285091943
-0.30690303 0.00050795171 -0.031966787 4289759611
-0.30696961 0.0021624623 -0.032114562 4292694087
-0.3073402 0.0038734679 -0.032751206 4293151825
-0.30740711 0.0055351085 -0.032899607 4293083969
-0.30716997 0.0071399799 -0.032559145 4293086521
-0.30723694 0.0088038314 -0.032707747 4293094730
-0.30730399 0.010469976 -0.032856565 4293029987
-0.30737117 0.012138503 -0.033005591 4293090398
-0.3074384 0.013809374 -0.033154823 4293024596
-0.30720204 0.015411343 -0.032815486 4292973925
-0.30696645 0.017010976 -0.032477356 4293169009
-0.30703378 0.018683968 -0.032626789 4293351248
-0.30710122 0.020359298 -0.03277643 4293427807
-0.30686644 0.021956356 -0.032439511 4293443465
-0.30663243 0.023551064 -0.032103792 4293243282
-0.30669993 0.02522859 -0.032253619 4293382053
-0.30676755 0.026908476 -0.032403655 4291740833
-0.30683526 0.028590742 -0.032553915 4291213468
-0.30690306 0.030275391 -0.032704379 4290226579
-0.30666983 0.031867422 -0.032369811 4289310869
-0.3058393 0.033263627 -0.031072622 4288651677
-0.30560917 0.034846764 -0.030742826 4288525212
-0.30537981 0.036427677 -0.030414203 4289050771
-0.30515119 0.038006343 -0.030086743 4290363527
-0.30492336 0.039582841 -0.029760465 4291799174
-0.30469626 0.041157145 -0.029435342 4292645518
-0.30446994 0.04272927 -0.029111346 4292981397
-0.30483171 0.044522844 -0.029735958 4293052315
-0.30489963 0.046209291 -0.029886572 4292521106
-0.30526274 0.048015367 -0.030513646 4292325517
-0.30652064 0.05019122 -0.032584537 4292859041
-0.306889 0.052021209 -0.033220571 4292990121
-0.30816591 0.054241613 -0.035323132 4293119653
-0.30823529 0.055965193 -0.035477072 4293051807
-0.30860919 0.057824589 -0.036122706 4293245585
-0.30867887 0.059555646 -0.036277328 4294029448
-0.30844402 0.061150733 -0.035940226 4294419844
-0.30881852 0.063025258 -0.03658722 4293833362
-0.30919427 0.064907804 -0.037236366 4293908667
-0.30957121 0.066798426 -0.03788764 4294571478
-0.3096416 0.068547137 -0.038043831 4294704609
-0.31001994 0.070450976 -0.038697697 4293452477
-0.31102011 0.072675824 -0.040356558 4288253839
-0.31171569 0.074762493 -0.041523661 4287007603
-0.31244582 -0.016984222 -0.043563075 4286414448
-0.31251296 -0.015294772 -0.043714747 4283719264
-0.31193587 -0.013661495 -0.042822406 4282668380
-0.31200299 -0.011972534 -0.042974062 4282079079
-0.31142941 -0.010349655 -0.042087149 4281752687
-0.31022617 -0.0088070594 -0.040179137 4281490289
-0.30934998 -0.0072423187 -0.038800981 4281554795
-0.30817202 -0.005729883 -0.036933158 4281815136
-0.30700821 -0.0042331913 -0.035087794 4281815648
-0.30585828 -0.0027519132 -0.033264507 4281880418
-0.30562213 -0.0011462539 -0.032923229 4282601828
-0.30538675 0.00045700933 -0.032583144 4285293932
-0.30515218 0.0020578071 -0.032244265 4289285711
-0.3052178 0.0037099042 -0.032392602 4292302169
-0.30528355 0.0053642937 -0.032541141 4293156453
-0.30534938 0.0070210206 -0.032689888 4293474350
-0.3054153 0.0086800698 -0.032838847 4293083957
-0.30548131 0.010341456 -0.032988012 4293090379
-0.30554742 0.01200518 -0.033137392 4293487961
-0.30531359 0.013602909 -0.032799691 4293490520
-0.30537981 0.015268865 -0.032949261 4293028944
-0.30514672 0.0168641 -0.032612737 4293162070
-0.30521303 0.018532299 -0.032762513 4293162343
-0.3052794 0.020202849 -0.032912493 4293176185
-0.30504712 0.021795569 -0.03257715 4292530596
-0.30481565 0.02338597 -0.032243025 4292919706
-0.30488211 0.025058702 -0.03239321 4293055145
-0.30494866 0.026733791 -0.0325436 4292859050
-0.30501533 0.028411249 -0.032694213 4292263582
-0.30478457 0.029999118 -0.032361228 4291212185
-0.30396372 0.031397179 -0.031068439 4290163613
-0.30403027 0.033071965 -0.031218801 4289244317
-0.30380258 0.034650903 -0.030890549 4288392088
-0.30357566 0.036227643 -0.030563463 4288458632
-0.30305752 0.037699915 -0.029762402 4289182342
-0.30312407 0.039374508 -0.029912746 4290887313
-0.30260891 0.040838193 -0.029116329 4292453523
-0.30267543 0.042512707 -0.029266683 4292713610
-0.30303273 0.044300899 -0.029890494 4292785546
-0.30339116 0.04609669 -0.030516297 4292919961
-0.30404413 0.048017308 -0.031622004 4292986017
-0.30529401 0.050193325 -0.033700183 4293115802
-0.30595848 0.052147731 -0.034825396 4293179543
-0.30783844 0.054630011 -0.037931073 4293177490
-0.30821243 0.056493361 -0.038583815 4293111689
-0.30858764 0.058364727 -0.03923874 4293635971
-0.30896404 0.060244147 -0.039895825 4294485645
-0.30965087 0.062273081 -0.041059021 4292461472
-0.31003079 0.064171791 -0.041722234 4289578931
-0.3101007 0.065931208 -0.041880194 4288127670
-0.31048203 0.067843288 -0.04254603 4292132535
-0.31055224 0.069610439 -0.042704698 4293126855
-0.31093502 0.07153599 -0.043373276 4289302168
-0.31069297 0.073152386 -0.043022715 4287530356
-0.3113898 0.075250022 -0.044203904 4287992693
-0.31183925 -0.016939107 -0.045753036 4286279783
-0.31190571 -0.015244323 -0.045905989 4283850076
-0.31132784 -0.013606058 -0.045005027 4283127639
-0.3113943 -0.011911786 -0.045157932 4282537820
-0.31050101 -0.010318299 -0.0437405 4282013798
-0.30930072 -0.0087733958 -0.041820381 4281686891
-0.30811501 -0.0072448435 -0.039923642 4281751146
-0.30694363 -0.0057322667 -0.038049862 4281881440
-0.30548283 -0.0042778412 -0.035701912 4281814367
-0.30434284 -0.0027983617 -0.033878498 4281814365
-0.30381015 -0.001241399 -0.033049162 4281945953
-0.3035773 0.00035738462 -0.032710705 4282536552
-0.30334523 0.0019537723 -0.032373425 4284893528
-0.30340981 0.0036011334 -0.032522105 4288629852
-0.30347455 0.0052507874 -0.032670986 4292776568
-0.30324322 0.0068445634 -0.032334872 4293675587
-0.30330801 0.0084964288 -0.032483954 4293216828
-0.30337289 0.010150624 -0.03263326 4293148723
-0.30343786 0.011807147 -0.032782767 4293415745
-0.30350292 0.013466001 -0.032932471 4293298014
-0.30356807 0.015127193 -0.0330824 4292964703
-0.30333751 0.016718093 -0.0327475 4293027923
-0.30340278 0.018381547 -0.032897614 4293095784
-0.30346811 0.020047324 -0.033047967 4292975747
-0.30323827 0.02163573 -0.032714181 4291414435
-0.30300924 0.023221843 -0.032381583 4292330139
-0.30307466 0.024889808 -0.032532122 4292793000
-0.30314016 0.026560118 -0.032682881 4292466602
-0.30320579 0.028232826 -0.032833848 4292068513
-0.30210069 0.029543674 -0.031063063 4291674531
-0.30187541 0.031118555 -0.030736348 4291147685
-0.30165088 0.032691218 -0.030410787 4290424479
-0.3017163 0.034358788 -0.030561287 4289440663
-0.30149251 0.035929237 -0.030236904 4288850313
-0.30126947 0.037497517 -0.02991364 4289308290
-0.30104718 0.039063606 -0.029591531 4291013520
-0.30111268 0.040733434 -0.029742243 4292328343
-0.30117825 0.04240565 -0.029893162 4292654734
-0.301532 0.04419126 -0.030517768 4292718468
-0.30275899 0.046327684 -0.032577857 4292912259
-0.3037053 0.048372928 -0.034177192 4293037191
-0.30495781 0.050560743 -0.036280364 4292839804
-0.30592388 0.052650761 -0.037913043 4293036404
-0.30750781 0.055021886 -0.040562425 4293236346
-0.30818909 0.057027839 -0.041727774 4293700480
-0.30856562 0.058911324 -0.042392131 4294552464
-0.30863434 0.060663331 -0.042550251 4294167981
-0.30901226 0.062560096 -0.043217249 4294242494
-0.30939144 0.064465083 -0.043886524 4292933851
-0.30946067 0.066229925 -0.044045802 4288001681
-0.30952999 0.067997307 -0.044205301 4286148245
-0.3095994 0.069767222 -0.044365048 4286541984
-0.30998045 0.071696058 -0.04503794 4287136111
-0.31036273 0.073633216 -0.045713071 4287597428
-0.31137627 0.075905524 -0.04742815 4288977016
-0.31155226 -0.016869225 -0.048490785 4286212191
-0.31129453 -0.015193566 -0.048110932 4283784023
-0.31200895 -0.013431492 -0.049336184 4283258709
-0.31110355 -0.011818484 -0.047886919 4282996053
-0.31020659 -0.010217962 -0.046451218 4282602586
-0.30837226 -0.0087396568 -0.043466784 4281947746
-0.30718952 -0.0072088432 -0.041558009 4281882215
-0.30571502 -0.0057346453 -0.039166737 4281883241
-0.30426255 -0.004280082 -0.036811266 4281814883
-0.3031289 -0.002800456 -0.034982074 4281814365
-0.30259895 -0.0012433619 -0.034150265 4281814622
-0.30207223 0.0003068872 -0.033323597 4281881187
-0.30184186 0.0019011326 -0.032986686 4282470755
-0.30161229 0.003492984 -0.032651022 4284173933
-0.30167595 0.0051379465 -0.032800246 4289234297
-0.30144709 0.0067273481 -0.032465715 4292706920
-0.30151087 0.0083744992 -0.03261514 4293223772
-0.30157471 0.01002398 -0.032764785 4293480508
-0.30163863 0.011675776 -0.032914646 4293212986
-0.30170268 0.013329902 -0.033064689 4293088837
-0.30176678 0.01498635 -0.033214971 4292833886
-0.30153868 0.016572954 -0.032881595 4293161568
-0.30160287 0.018231643 -0.033032075 4292826978
-0.30166715 0.019892685 -0.033182763 4292831341
-0.30143982 0.021476811 -0.03285056 4291534725
-0.30121323 0.023058672 -0.032519545 4291800975
-0.30127761 0.024721902 -0.032670435 4291805089
-0.30134207 0.026387498 -0.032821532 4290824102
-0.30082667 0.027878709 -0.032011904 4291214236
-0.30002716 0.029273784 -0.030731345 4291411865
-0.29980502 0.030842349 -0.030407296 4290096023
-0.2998693 0.032502893 -0.030557944 4290092951
-0.29964787 0.034069229 -0.030235065 4289704086
-0.29942721 0.035633419 -0.02991331 4288721038
-0.29949155 0.037296247 -0.030064162 4289308809
-0.29927161 0.038858257 -0.029743601 4290813836
-0.29933608 0.040523428 -0.029894659 4292129941
-0.29968518 0.042298913 -0.030518005 4292593296
-0.30003542 0.044081915 -0.031143421 4292395921
-0.30212289 0.046560012 -0.034651585 4292916883
-0.30306834 0.04861242 -0.036265533 4293167232
-0.30461845 0.050931443 -0.038883574 4292835963
-0.30558643 0.053032544 -0.040535901 4293366636
-0.30748087 0.055548999 -0.04372694 4293895036
-0.30847499 0.057704315 -0.045423884 4293957007
-0.30885389 0.059603114 -0.046099644 4292328888
-0.30923402 0.061510157 -0.046777654 4289051578
-0.30930254 0.063280687 -0.046938274 4290303419
-0.30937117 0.065053776 -0.047099128 4293588441
-0.3094399 0.066829383 -0.047260214 4292737705
-0.30950874 0.068607584 -0.04742153 4286539414
-0.30957764 0.07038831 -0.047583085 4286283889
-0.30996001 0.072329834 -0.048265718 4287399792
-0.31034365 0.074279808 -0.04895068 4287924087
-0.31158802 -0.016773907 -0.05179676 4286014810
-0.31132776 -0.01508788 -0.051410239 4283783251
-0.311719 -0.013344564 -0.052109476 4283454802
-0.31080991 -0.011724339 -0.050641447 4283323218
-0.30990928 -0.010116722 -0.04918718 4283060560
-0.3077541 -0.0086691873 -0.045640763 4282338901
-0.30626103 -0.0071727573 -0.043197501 4281880926
-0.30479041 -0.0056964923 -0.040791109 4281817449
-0.30304205 -0.0042823139 -0.037920788 4281750375
-0.30191478 -0.002802579 -0.036085814 4281749859
-0.30109379 -0.0012916974 -0.034761347 4281748829
-0.30057141 0.00025654017 -0.033934854 4281945178
-0.30034277 0.001848653 -0.033598363 4281945952
-0.30011484 0.0034383677 -0.03326302 4282077292
-0.29988769 0.0050257612 -0.032928888 4284177016
-0.29966128 0.0066108173 -0.032595947 4288839799
-0.29972401 0.0082532922 -0.032745723 4292573299
-0.29978684 0.009898074 -0.032895707 4293291606
-0.29984972 0.011545178 -0.033045903 4293218642
-0.29991272 0.013194598 -0.0331963 4293279284
-0.29997581 0.01484634 -0.033346917 4293087040
-0.29975015 0.016428648 -0.033015113 4293157207
-0.29981333 0.018082622 -0.033165932 4292896354
-0.29958838 0.019662589 -0.032835297 4292958551
-0.29965165 0.021318827 -0.032986332 4292568407
-0.29942745 0.022896457 -0.032656871 4291925366
-0.29949081 0.024554973 -0.03280811 4291210647
-0.29926735 0.026130289 -0.032479789 4290757286
-0.29847482 0.027528709 -0.031199625 4291018912
-0.29825431 0.029095316 -0.030875962 4291016593
-0.29831755 0.030751221 -0.03102695 4289438344
-0.29809776 0.032315627 -0.030704426 4289300350
-0.29816109 0.033973835 -0.030855637 4289301889
-0.29766035 0.035437971 -0.030062815 4289045382
-0.29772368 0.037096143 -0.030214028 4289245067
-0.2977871 0.038756672 -0.030365447 4290492816
-0.29785061 0.040419549 -0.030517085 4291740310
-0.29819626 0.042192489 -0.031141276 4292067225
-0.29939675 0.04430595 -0.033197381 4292527005
-0.30148289 0.046793681 -0.036737606 4293048726
-0.30301812 0.049093623 -0.039355882 4293169282
-0.30457619 0.051430125 -0.04201322 4293232257
-0.30554882 0.053546119 -0.043690212 4293827453
-0.30807355 0.056350417 -0.047969043 4294943115
-0.30845255 0.058253378 -0.048652306 4293762215
-0.30883279 0.060164645 -0.049337871 4288981939
-0.30890062 0.061940793 -0.049499836 4285032585
-0.30896857 0.063719511 -0.049662024 4285953939
-0.30903658 0.065500773 -0.049824461 4292792223
-0.30910471 0.067284591 -0.049987122 4288970913
-0.30917296 0.069070995 -0.050150014 4287134575
-0.30955541 0.0710169 -0.050840236 4287726188
-0.30993915 0.072971322 -0.05153285 4288051308
-0.31162402 -0.016677396 -0.055144258 4285555803
-0.31103441 -0.015008542 -0.054201238 4283848788
-0.31175405 -0.013226316 -0.05546058 4283389265
-0.31051329 -0.011629314 -0.05342181 4283323219
-0.30928797 -0.010049657 -0.051408444 4283518798
-0.30713198 -0.0085982773 -0.04782822 4282863179
-0.30532947 -0.0071365624 -0.044842102 4282338641
-0.30386287 -0.005658221 -0.042420562 4282012252
-0.30211934 -0.0042421506 -0.039532173 4281815911
-0.30070049 -0.0028046712 -0.037189741 4281685610
-0.29988399 -0.0012936541 -0.035861176 4281750116
-0.29936433 0.00025471512 -0.035032231 4281879646
-0.29884782 0.0017962996 -0.034208376 4281880155
-0.29862159 0.003383917 -0.03387342 4281879903
-0.29810968 0.0049142428 -0.033056967 4282078059
-0.29817137 0.00655213 -0.033207085 4284173935
-0.29794738 0.00813278 -0.032875691 4289494902
-0.29800919 0.0097729005 -0.033026021 4291982705
-0.29778594 0.011351165 -0.032695796 4293355869
-0.29784781 0.012993519 -0.032846328 4293611583
-0.29790977 0.01463818 -0.032997075 4293477688
-0.29768723 0.016214024 -0.032667991 4293279034
-0.29774928 0.017860956 -0.03281894 4293225299
-0.29752749 0.019434469 -0.032491013 4293030751
-0.2975896 0.021083657 -0.032642178 4293350472
-0.29765183 0.022735151 -0.032793548 4292703065
-0.29771414 0.024389014 -0.032945134 4292516992
-0.29692858 0.02579074 -0.031665362 4292527010
-0.29642937 0.027268922 -0.030868808 4291742628
-0.2964915 0.028917858 -0.031019939 4291086752
-0.29627404 0.030478194 -0.030698914 4289706137
-0.29605725 0.032036372 -0.030379031 4290549634
-0.29611948 0.033687599 -0.030530369 4291069044
-0.29590344 0.035243642 -0.030211624 4291075198
-0.29596573 0.036897194 -0.03036318 4290753163
-0.29630664 0.038655359 -0.030985693 4291216793
-0.29664865 0.040420961 -0.031610232 4292401064
-0.29755476 0.042410269 -0.033188641 4292794797
-0.29875416 0.044531252 -0.035263427 4293119652
-0.30171794 0.047381166 -0.040322516 4293176975
-0.30326542 0.049702648 -0.042987619 4293368187
-0.3051399 0.052188244 -0.046206653 4294027136
-0.30612296 0.054326899 -0.047918554 4294945686
-0.30804923 0.056893617 -0.051226933 4294758836
-0.3084296 0.058809116 -0.051920153 4293510832
-0.30881119 0.060733002 -0.052615669 4291408803
-0.30887854 0.062520109 -0.052779466 4293242513
-0.3086313 0.064162314 -0.052410815 4287136411
-0.30869871 0.065951847 -0.052574836 4286735223
-0.30845231 0.067591459 -0.05220744 4286937710
-0.30851984 0.069383435 -0.052371688 4287725162
-0.30984971 0.071812563 -0.054674383 4288513392
-0.310875 0.074110016 -0.056461733 4288777587
-0.31192669 -0.018289829 -0.058936015 4287860599
-0.31199118 -0.016554182 -0.059095912 4285162587
-0.31272084 -0.014759405 -0.060385268 4283848533
-0.31145936 -0.013137465 -0.058293656 4283323473
-0.31021374 -0.011533372 -0.056228451 4283388752
-0.30898368 -0.0099468427 -0.054189086 4284568140
-0.30619249 -0.0085640065 -0.049496945 4283781193
-0.30439499 -0.0071002566 -0.046491902 4282993992
-0.30293232 -0.0056198281 -0.044055104 4282534990
-0.30119368 -0.0042018602 -0.041148547 4282011228
-0.2997787 -0.0027624278 -0.038791414 4281750631
-0.29867402 -0.001295632 -0.036961164 4281750888
-0.29815707 0.00025286892 -0.036129769 4281684066
-0.29764327 0.0017946075 -0.035303477 4281814364
-0.29713252 0.0033296319 -0.03448223 4281813852
-0.29662484 0.0048579816 -0.033665959 4281879902
-0.29640251 0.006436619 -0.033334941 4282077032
-0.29618087 0.00801297 -0.0330051 4284443246
-0.29595998 0.0095870337 -0.03267641 4288570232
-0.29602078 0.011222455 -0.032827057 4292504660
-0.29608163 0.01286017 -0.032977935 4293490782
-0.29586148 0.014431833 -0.032650415 4293616465
-0.29592243 0.016071802 -0.03280149 4293347646
-0.29570296 0.017641183 -0.03247511 4293087306
-0.29576397 0.019283393 -0.032626405 4292895062
-0.29582509 0.020927941 -0.032777902 4293222740
-0.29588631 0.02257481 -0.032929618 4293290834
-0.29510996 0.02397815 -0.031654194 4293028693
-0.29489338 0.025538694 -0.031332396 4292904825
-0.2946775 0.027097089 -0.03101173 4292523156
-0.29446232 0.028653365 -0.030692236 4292069023
-0.29452342 0.030297659 -0.030843712 4290693540
-0.29430896 0.031851787 -0.030525319 4291152292
-0.29437014 0.033498414 -0.030677015 4291870624
-0.29443142 0.035147376 -0.03082893 4292066716
-0.29476872 0.036898304 -0.031451784 4292396956
-0.29538468 0.038759198 -0.032550324 4292465316
-0.29600427 0.040633198 -0.033655375 4292728748
-0.29690939 0.042629313 -0.035248071 4293121193
-0.29839367 0.044870835 -0.037829936 4293379483
-0.30165991 0.047857784 -0.043454748 4293504903
-0.30381802 0.050445117 -0.047189161 4293894523
-0.30571365 0.052960124 -0.050476316 4294614155
-0.30670732 0.055121876 -0.052224055 4294891709
-0.30802444 0.057443444 -0.054524805 4294370514
-0.30809087 0.059231043 -0.054689489 4292398301
-0.307843 0.060878236 -0.054317124 4292339416
-0.30790952 0.062668227 -0.054482024 4289560740
-0.30766243 0.064312845 -0.054111026 4284901496
-0.30772904 0.066105224 -0.054276135 4285756778
-0.30748284 0.067747295 -0.053906523 4287855720
-0.3084915 0.070010565 -0.055682532 4289496679
-0.31046921 0.07278277 -0.05911646 4289105008
-0.31150597 0.075106226 -0.060941905 4289632374
-0.31196585 -0.018201722 -0.062376197 4287202673
-0.31202987 -0.016454896 -0.062537931 4284966491
-0.31276342 -0.014648258 -0.063847363 4283848531
-0.31182495 -0.012985341 -0.062290877 4283519311
-0.31056631 -0.011369467 -0.060185019 4283716170
-0.30899942 -0.009807297 -0.057549983 4285420614
-0.30587566 -0.0084551536 -0.052244082 4285093962
-0.30407196 -0.0069855708 -0.049200986 4283780167
-0.30260423 -0.0054991646 -0.046733409 4282927433
-0.30085987 -0.0040757665 -0.043790486 4282534991
-0.29944023 -0.0026307234 -0.041403953 4281945179
-0.2983318 -0.0011580737 -0.039550941 4281749602
-0.29752421 0.00034821304 -0.038213711 4281619045
-0.29672378 0.0018435424 -0.036888499 4281813856
-0.29621413 0.0033807675 -0.036062155 4281813854
-0.29570755 0.0049113496 -0.035240885 4281814364
-0.29520401 0.0064353198 -0.034424577 4281879904
-0.2949833 0.008011776 -0.034093928 4281946471
-0.29448417 0.0095247226 -0.033284917 4283978604
-0.29426563 0.011094468 -0.032957751 4288965989
-0.2943255 0.012727601 -0.033108968 4291989113
-0.2943854 0.014363006 -0.033260394 4293422173
-0.29416758 0.015930397 -0.032934394 4293553737
-0.29395047 0.01749558 -0.032609526 4293410871
-0.29401046 0.019133203 -0.032761164 4293145655
-0.29407057 0.020773141 -0.032913007 4292960084
-0.29357836 0.022256903 -0.032114916 4293034082
-0.29336336 0.023815507 -0.031793486 4293096794
-0.29314905 0.025371948 -0.031473212 4293090649
-0.29320914 0.027011745 -0.031625047 4292836469
-0.29272255 0.028478438 -0.030836014 4292718993
-0.29278263 0.030118175 -0.030987848 4292002972
-0.29257041 0.031668253 -0.030670939 4291280285
-0.29290307 0.033404648 -0.031292152 4291147935
-0.29323676 0.035148382 -0.031915355 4291217318
-0.2935715 0.036899436 -0.032540563 4291150242
-0.2950156 0.039069969 -0.035076924 4290883226
-0.29591677 0.041059926 -0.036678661 4291412386
-0.29768085 0.04340215 -0.039767809 4292855970
-0.30035439 0.046137258 -0.044425216 4293243789
-0.30279863 0.048826315 -0.048688788 4293892982
-0.30468684 0.051328033 -0.051995151 4294871417
-0.30660972 0.05387814 -0.055362295 4294950310
-0.3079333 0.056203891 -0.057697032 4293978315
-0.30831623 0.058139633 -0.058410224 4290495172
-0.30838224 0.059941102 -0.058577023 4289767075
-0.30781478 0.061455358 -0.057651009 4287663539
-0.3075653 0.063109457 -0.057273488 4285096570
-0.30700311 0.06461224 -0.056356188 4285822315
-0.307069 0.066410244 -0.056522682 4287854438
-0.30713499 0.068210848 -0.0566894 4289035106
-0.307515 0.070171162 -0.057398308 4289430119
-0.31012854 0.073276497 -0.06196405 4289237107
-0.31200534 -0.018112464 -0.065860577 4286871145
-0.31206888 -0.016354362 -0.066024177 4284967514
-0.31280628 -0.014535656 -0.067353971 4283717458
-0.31186077 -0.012862563 -0.065771602 4283519569
-0.31059304 -0.011237083 -0.063631199 4284437326
-0.30934134 -0.0096296631 -0.061517965 4285288779
-0.30555567 -0.0083452892 -0.055016872 4285950030
-0.30374575 -0.0068698567 -0.051935121 4285221957
-0.30227298 -0.0053774179 -0.04943632 4283648583
-0.30052286 -0.0039485702 -0.046456497 4282862663
-0.29880419 -0.0025429854 -0.043530229 4282533963
-0.2976954 -0.0010663397 -0.041659847 4282206806
-0.29688737 0.00044408927 -0.04031013 4281684320
-0.2958014 0.001892603 -0.038478296 4281683044
-0.29529288 0.0034320899 -0.037646916 4281683297
-0.29450622 0.0049098977 -0.036333088 4281683293
-0.29400533 0.0064339922 -0.035514392 4281748830
-0.2935074 0.0079515493 -0.034700632 4281879900
-0.29301244 0.0094626071 -0.033891808 4282012257
-0.29279551 0.011030298 -0.03356503 4284044139
-0.29257926 0.012595763 -0.033239402 4289162608
-0.29263821 0.014226602 -0.033391159 4292300368
-0.29242268 0.015789809 -0.033066727 4293494879
-0.29220787 0.017350826 -0.032743376 4293483334
-0.29226688 0.018983861 -0.032895345 4293147189
-0.29232594 0.020619212 -0.033047542 4293017657
-0.2918393 0.02209929 -0.032252107 4293025873
-0.29162657 0.023653785 -0.031932183 4293098595
-0.2914145 0.025206147 -0.031613391 4293162848
-0.2914736 0.026841378 -0.031765565 4293090139
-0.2909925 0.028304532 -0.030979184 4292835178
-0.29078248 0.029850569 -0.030663712 4292848517
-0.29057321 0.031394541 -0.030349437 4292922525
-0.29117 0.033217084 -0.031436339 4292464293
-0.29149944 0.034955699 -0.032058749 4291936159
-0.29237413 0.036900572 -0.033629518 4291857531
-0.29436418 0.0392791 -0.037140589 4291190881
-0.29582804 0.041491654 -0.039737381 4291199866
-0.30201533 0.045579117 -0.050552189 4292587147
-0.30451596 0.048299912 -0.054955844 4293434484
-0.30582148 0.050576858 -0.057281107 4294212969
-0.30682743 0.052752715 -0.059085701 4294816657
-0.30784279 0.054951333 -0.060907256 4294046398
-0.30822694 0.056894645 -0.06163045 4290301629
-0.30829233 0.058704842 -0.061798904 4286678160
-0.30772057 0.060229786 -0.060857825 4286824352
-0.30715245 0.061747953 -0.059922799 4284442765
-0.3065879 0.0632594 -0.058993764 4285624428
-0.30602691 0.064764135 -0.058070607 4287853924
-0.30609199 0.066565059 -0.058238205 4289164895
-0.30615714 0.068368547 -0.05840604 4289626468
-0.3065353 0.070332244 -0.059119556 4289169515
-0.31204513 -0.018022055 -0.069389954 4286802788
-0.31381166 -0.016118936 -0.072530724 4285032793
-0.3131904 -0.014392045 -0.071501382 4283586387
-0.31257316 -0.012673801 -0.070478879 4283323474
-0.31095332 -0.011068453 -0.067704149 4285290322
-0.30935919 -0.0094861146 -0.064973623 4286076496
-0.30523252 -0.0082343994 -0.05781569 4286735952
-0.30341637 -0.0067530489 -0.054694671 4286797381
-0.30132946 -0.0053381878 -0.051099442 4285026890
-0.29958442 -0.0039074072 -0.048100859 4283518533
-0.29816413 -0.0024547065 -0.045669373 4282861125
-0.29705501 -0.0009740864 -0.043781474 4282861385
-0.29595909 0.00049133919 -0.041916169 4282078300
-0.29516035 0.001992903 -0.040570281 4281552736
-0.29436874 0.0034835325 -0.039236482 4281551715
-0.29358411 0.0049634227 -0.037914552 4281487202
-0.29280648 0.0064326879 -0.036604367 4281552735
-0.29231116 0.0079503478 -0.035788231 4281749085
-0.29181886 0.0094615594 -0.034977034 4281879645
-0.29132941 0.010966317 -0.034170728 4282077284
-0.29111481 0.012529748 -0.033845503 4284504424
-0.29090086 0.01409099 -0.033521384 4288497247
-0.29068762 0.015650023 -0.033198416 4292121977
-0.29074562 0.017278545 -0.033350725 4293299287
-0.29053304 0.018835381 -0.033028927 4293153862
-0.290052 0.020314159 -0.032236367 4293083973
-0.2898415 0.021864599 -0.031917941 4293215035
-0.2898995 0.023493001 -0.032070242 4293088574
-0.28968969 0.025041293 -0.03175294 4293230168
-0.28948054 0.026587488 -0.031436723 4293164393
-0.28900632 0.028045258 -0.030655416 4293090650
-0.28879917 0.02958524 -0.030342543 4292898136
-0.28885716 0.031213608 -0.030494837 4292779641
-0.28944659 0.033030599 -0.031579886 4292718737
-0.29030782 0.034956709 -0.033142433 4292586641
-0.29199362 0.037202302 -0.036153089 4292649610
-0.29914841 0.041537575 -0.048767705 4292515202
-0.30129322 0.044068102 -0.05258793 4292649088
-0.3037917 0.046776388 -0.05703054 4293236083
-0.30540839 0.049174383 -0.059925482 4293818217
-0.30768839 0.051874492 -0.063986726 4294224519
-0.30743322 0.053551279 -0.063594401 4292535475
-0.30813822 0.05563648 -0.064889461 4290036925
-0.30820301 0.05745548 -0.06505958 4286416010
-0.30794695 0.059133992 -0.064665698 4283787130
-0.30737269 0.060664859 -0.063712224 4284117631
-0.30648586 0.062042367 -0.062208798 4286016365
-0.30592072 0.063557684 -0.061270725 4287722850
-0.30504751 0.064916514 -0.059790488 4288967261
-0.30542347 0.066872887 -0.060507607 4289755230
-0.30517611 0.068526752 -0.060128152 4289629809
-0.30617908 0.070811465 -0.061949164 4289499765
-0.31242588 -0.017906478 -0.073565759 4286474080
-0.31386271 -0.016014075 -0.076156475 4284901463
-0.31323627 -0.014276154 -0.075109459 4283586389
-0.31261402 -0.012547008 -0.07406953 4283389010
-0.3109825 -0.010932218 -0.071248941 4285027149
-0.31138176 -0.0091146976 -0.07201039 4287121974
-0.30910867 -0.0076129674 -0.068056554 4287054652
-0.30624214 -0.0062254197 -0.063054159 4286669387
-0.30252385 -0.005002914 -0.056546774 4285687123
-0.29894063 -0.0038224722 -0.050275903 4284963144
-0.29752001 -0.0023659191 -0.047821552 4283581762
-0.2961207 -0.0009287236 -0.045404043 4283255109
-0.2953144 0.00058806699 -0.044033237 4282864723
-0.29423121 0.002042396 -0.042172905 4281945945
-0.29344168 0.0035351228 -0.040830843 4281550943
-0.29265916 0.0050170776 -0.039500788 4281291108
-0.29188356 0.0064883754 -0.038182564 4281422690
-0.29138941 0.0080082323 -0.037361458 4281749088
-0.2903527 0.0093996068 -0.03558097 4281879643
-0.2898674 0.010902505 -0.034774888 4281944922
-0.28965434 0.01246392 -0.03444998 4282142042
-0.28944197 0.01402314 -0.034126241 4283714920
-0.28896227 0.015511049 -0.03332955 4288246140
-0.28901929 0.017135035 -0.033482201 4292120166
-0.28827643 0.018541237 -0.032219559 4293757788
-0.28833336 0.020162879 -0.032371987 4293749853
-0.28839037 0.021786775 -0.032524645 4293285456
-0.28818205 0.023333136 -0.032207668 4293085242
-0.28797448 0.024877379 -0.031891879 4293018942
-0.28803158 0.026503569 -0.032044731 4292828248
-0.28756124 0.027959632 -0.031263523 4292965223
-0.28735566 0.029497683 -0.030951038 4293156433
-0.2876755 0.031214342 -0.031569451 4292959303
-0.28852579 0.033125013 -0.033128072 4292965989
-0.29019046 0.035346173 -0.036130544 4293097074
-0.29188412 0.037608311 -0.039185364 4292963944
-0.30026835 0.042436469 -0.054102693 4293231979
-0.30245045 0.045007665 -0.058027457 4293431403
-0.30467978 0.047636937 -0.062037218 4293620327
-0.30695787 0.050326243 -0.066134825 4294222218
-0.30863422 0.052807685 -0.069166191 4294568366
-0.30902418 0.054776356 -0.069916166 4292337581
-0.30941546 0.056753844 -0.07066875 4287400598
-0.30882731 0.058308747 -0.069683276 4283655033
-0.30792004 0.059711624 -0.068130992 4283261295
-0.30702135 0.061104 -0.066593498 4285688937
-0.30581495 0.062338606 -0.064509183 4287983968
-0.30556348 0.064007141 -0.064120136 4288967002
-0.30437547 0.065219618 -0.062067453 4289557082
-0.30443898 0.067029133 -0.062237542 4289953123
-0.30450261 0.068841226 -0.06240787 4289367668
-0.31246859 -0.017813424 -0.077197596 4286080604
-0.31356665 -0.015935397 -0.079211295 4284703318
-0.31293717 -0.01418907 -0.078150027 4283651925
-0.31231192 -0.012451618 -0.077095963 4283389010
-0.31033728 -0.010864993 -0.073638372 4285291091
-0.30873099 -0.0092688138 -0.070835829 4287447603
-0.30813235 -0.0075756945 -0.069827594 4287642929
-0.30527425 -0.0061863828 -0.064793125 4286858804
-0.30064708 -0.0050905687 -0.056604497 4286408262
-0.2982927 -0.0037369968 -0.052464273 4285424463
-0.29657868 -0.0023223711 -0.049464218 4285284678
-0.29518342 -0.00088324817 -0.047031626 4284171842
-0.29437923 0.00063574471 -0.0456523 4283058759
-0.29329914 0.0020920408 -0.043780457 4282469194
-0.29251173 0.0035868948 -0.04243011 4281878609
-0.2917313 0.0050709196 -0.041091871 4281485403
-0.29095778 0.0065442524 -0.039765533 4281421666
-0.29019108 0.0080070365 -0.03845096 4281750369
-0.28916046 0.0093985656 -0.03666497 4281814367
-0.28840938 0.010838889 -0.035377424 4281813851
-0.28793097 0.012333632 -0.034576353 4281880156
-0.28772083 0.013888675 -0.034254123 4282010979
-0.28724658 0.01537286 -0.033460107 4283716717
-0.28677511 0.016850866 -0.032670811 4288237924
-0.28656837 0.018395305 -0.032354273 4291904069
-0.28662431 0.020012433 -0.032507036 4293017923
-0.28668031 0.021631869 -0.032660015 4292961123
-0.28647423 0.023174154 -0.032344531 4292766048
-0.28626877 0.024714401 -0.032030154 4292953918
-0.28632486 0.026336106 -0.032183342 4293016892
-0.28585988 0.027788671 -0.031404778 4293031522
-0.28617626 0.029498298 -0.032023538 4293167209
-0.28675547 0.031305768 -0.033112686 4293156427
-0.28839928 0.033502769 -0.036106963 4293021255
-0.29007158 0.035740167 -0.039153326 4292958818
-0.292606 0.038329333 -0.043743685 4293164659
-0.30141547 0.043357346 -0.059568375 4293429604
-0.30363607 0.045970436 -0.063601643 4293225057
-0.30558702 0.048516311 -0.067153454 4293234818
-0.30725154 0.050981063 -0.070193462 4293315243
-0.30861494 0.053351093 -0.072695069 4290688946
-0.30900642 0.055333249 -0.073456258 4288185224
-0.30907035 0.057181615 -0.073630854 4284376183
-0.30815375 0.058598388 -0.072048321 4282933616
-0.30724585 0.060004447 -0.070480913 4285753959
-0.30634657 0.061399926 -0.06892845 4287919200
-0.30609086 0.063083068 -0.068529509 4288836185
-0.30551893 0.064611942 -0.06756331 4289359703
-0.30401054 0.065676205 -0.064917214 4289754717
-0.3043859 0.067649134 -0.065649524 4289627244
-0.30507705 0.069789506 -0.066948637 4289565816
-0.31314391 -0.019480806 -0.081952408 4287992438
-0.31355432 -0.01764478 -0.082750902 4285622360
-0.31326741 -0.015855966 -0.082296506 4284571476
-0.31228945 -0.014131706 -0.080599777 4283586132
-0.31166333 -0.012388621 -0.079535067 4283913810
-0.31070131 -0.010690322 -0.07786607 4286344021
-0.30775008 -0.0092341565 -0.072619207 4287055416
-0.30682537 -0.0075785206 -0.071015708 4287774001
-0.30398485 -0.0061890059 -0.065965258 4287711283
-0.29969037 -0.0050504711 -0.058297142 4287253306
-0.29734319 -0.0036952242 -0.054130837 4286731333
-0.2956343 -0.002278713 -0.051111989 4286402901
-0.29424313 -0.00083764701 -0.048664197 4286201404
-0.29344112 0.00068353774 -0.047276337 4284040255
-0.29236412 0.0021418631 -0.045392945 4282730054
-0.29157883 0.0036388021 -0.044034258 4282337612
-0.29080051 0.0051248963 -0.042687789 4282009169
-0.29002911 0.0066002742 -0.041353282 4281485403
-0.28899255 0.008005864 -0.039540641 4281684579
-0.28769991 0.0093367929 -0.037265915 4281553000
-0.28695536 0.010775439 -0.035978407 4281618017
-0.28648096 0.012268347 -0.035177529 4281748831
-0.28627238 0.013821408 -0.034855686 4281879646
-0.2858021 0.015303798 -0.03406186 4282142301
-0.28533459 0.016780023 -0.033272777 4283910229
-0.28512934 0.018322488 -0.032956537 4288232259
-0.28492472 0.019862842 -0.032641422 4291447108
-0.28472081 0.021401126 -0.032327455 4293299557
-0.28451753 0.022937354 -0.032014545 4292837240
-0.28457254 0.024552334 -0.032167871 4292895576
-0.2841129 0.026003653 -0.031392075 4293151041
-0.28416795 0.027618648 -0.031545386 4292952901
-0.28448021 0.029323326 -0.032163344 4292632926
-0.28505215 0.031125346 -0.033250608 4292761424
-0.28667581 0.033314653 -0.036238305 4293082676
-0.28859621 0.035642497 -0.039763216 4293083963
-0.29534286 0.039815459 -0.052011289 4293218117
-0.29983318 0.043242529 -0.060185116 4293025364
-0.30203229 0.045850467 -0.064219654 4292638320
-0.30365008 0.048265256 -0.067204371 4291797400
-0.30529326 0.050720446 -0.070236109 4289372830
-0.30631661 0.052946351 -0.072147764 4285954959
-0.30670166 0.054918647 -0.072905377 4283982197
-0.30708799 0.056899771 -0.073665567 4283261039
-0.30715087 0.058745071 -0.073840745 4285492840
-0.30592453 0.060006991 -0.071682721 4287919458
-0.30630809 0.061994672 -0.072438158 4288967258
-0.30572996 0.063536458 -0.071452759 4289097558
-0.30547357 0.065224268 -0.071049742 4289491290
-0.30426949 0.066444576 -0.068930201 4290019428
-0.30496356 0.068592049 -0.070248269 4289432948
-0.31319258 -0.019396763 -0.085699581 4287137395
-0.31395715 -0.017522983 -0.087149657 4285425751
-0.31331506 -0.015747594 -0.086047702 4284571475
-0.31198278 -0.014043217 -0.083692916 4283782481
-0.31135365 -0.012291696 -0.082613654 4284698954
-0.31038749 -0.010585403 -0.080922246 4286405959
-0.30676585 -0.0091993865 -0.074408531 4286206282
-0.30551818 -0.0075813159 -0.072203994 4287251514
-0.30206579 -0.0062748394 -0.065994225 4288180041
-0.2990343 -0.0049674907 -0.060546957 4287651145
-0.2966871 -0.0036089646 -0.05634132 4287185982
-0.29497808 -0.0021888525 -0.053294137 4286667604
-0.29358682 -0.00074397837 -0.05082348 4285483588
-0.29278451 0.00078142894 -0.049422599 4285873205
-0.29170737 0.0022436229 -0.047521636 4284039230
-0.29092181 0.0037446585 -0.046150297 4282598988
-0.29014325 0.0052347896 -0.044791292 4282271822
-0.28909755 0.0066564488 -0.042945843 4282140497
-0.28806406 0.00806389 -0.041122101 4281749085
-0.28677541 0.0093964431 -0.038833465 4281618794
-0.28576875 0.010774534 -0.037057299 4282077034
-0.28529692 0.012267567 -0.036254097 4282011750
-0.28482786 0.013754341 -0.035455693 4281880162
-0.28436151 0.015234934 -0.034662046 4281945182
-0.28389797 0.016709374 -0.033873145 4282076506
-0.28369418 0.018249884 -0.03355727 4283778905
-0.2832346 0.019714097 -0.032775272 4288244068
-0.2830328 0.021248398 -0.032462724 4291326837
-0.28283164 0.022780638 -0.032151315 4292563540
-0.28263113 0.02431082 -0.031840965 4292763979
-0.28243124 0.025839005 -0.031531695 4292900699
-0.28248531 0.027449584 -0.031685337 4293088844
-0.28279349 0.029149376 -0.03230257 4293082170
-0.28361455 0.031035881 -0.03385539 4293147701
-0.28522277 0.033221424 -0.036844786 4293147698
-0.29065576 0.036846649 -0.046813708 4293148981
-0.29380801 0.039708521 -0.052623909 4292758599
-0.29795659 0.043012585 -0.060254622 4291190891
-0.30012786 0.045610189 -0.064278357 4289234834
-0.30172488 0.048015721 -0.067255117 4288458397
-0.3030327 0.050331667 -0.069704734 4285826948
-0.30403969 0.052545432 -0.071605787 4283392632
-0.30441839 0.054507952 -0.072359852 4282999150
-0.30447987 0.056339167 -0.072534539 4285361770
-0.3055003 0.058603205 -0.074461736 4287987047
-0.3052415 0.06030165 -0.074051552 4288901979
-0.30562425 0.062296238 -0.074814051 4289031253
-0.30568632 0.064146712 -0.0749906 4289359958
-0.30542746 0.065844364 -0.074580349 4289754462
-0.30453232 0.067224987 -0.073006243 4289890414
-0.30555192 0.069552802 -0.074934132 4289697401
-0.31359518 -0.019289147 -0.090144344 4286741096
-0.31401062 -0.017424861 -0.09097036 4285294678
-0.31301063 -0.015666293 -0.089203484 4284505939
-0.31167287 -0.013953845 -0.086816937 4283979084
-0.31069618 -0.012227649 -0.085091449 4285880650
-0.30972916 -0.010515936 -0.083383188 4286272839
-0.30577826 -0.0091645317 -0.076203808 4286866515
-0.30421078 -0.0075841397 -0.073392458 4286604620
-0.3017197 -0.006152478 -0.06888628 4287983948
-0.29837397 -0.0048839943 -0.062810935 4288177997
-0.29602674 -0.0035222047 -0.058565505 4287579449
-0.29431769 -0.0020984218 -0.055489663 4286141759
-0.2929264 -0.00064977841 -0.052995894 4285230421
-0.29183939 0.00082965737 -0.051059887 4285806906
-0.29104647 0.0023459918 -0.049663149 4285741359
-0.29026067 0.0038511469 -0.048279043 4283776832
-0.28920564 0.0052892496 -0.046400044 4282598730
-0.28843617 0.0067706434 -0.045044955 4282403147
-0.28713265 0.0081220791 -0.042708322 4282140494
-0.28584805 0.0094562881 -0.040405702 4281748059
-0.28484446 0.010836116 -0.038618717 4281879141
-0.28411269 0.012266759 -0.037330832 4281882222
-0.28364617 0.013753665 -0.036530133 4281685613
-0.28318238 0.015234376 -0.035734184 4281749603
-0.28272134 0.016708972 -0.034943011 4281879899
-0.28226292 0.018177494 -0.03415652 4282141788
-0.28180718 0.019639984 -0.033374656 4284173151
-0.2813541 0.021096507 -0.032597434 4287909721
-0.28115505 0.022624776 -0.032287434 4291380038
-0.28095663 0.024151031 -0.031978555 4292557884
-0.28075883 0.025675278 -0.031670742 4292963150
-0.28056166 0.027197525 -0.031363983 4291329372
-0.28086507 0.028889947 -0.031978913 4291056969
-0.28192687 0.030856982 -0.033990972 4292623156
-0.28533936 0.033695444 -0.040333878 4293147958
-0.28860867 0.036542952 -0.046415195 4292758337
-0.29171258 0.039387234 -0.052193876 4291778909
-0.29550365 0.042555545 -0.059240971 4289952140
-0.29763442 0.045132499 -0.063230067 4287473066
-0.29889795 0.047396217 -0.065621614 4285697429
-0.30017722 0.04969053 -0.068043038 4283657851
-0.30116212 0.051884234 -0.069922395 4282998896
-0.30153245 0.053830553 -0.070668779 4285099883
-0.30190405 0.055785593 -0.071417771 4287988329
-0.29858881 0.056083955 -0.065363936 4289165922
-0.30359793 0.060157906 -0.074671276 4289162839
-0.30493581 0.062599681 -0.077205107 4289031252
-0.30661678 0.065231219 -0.08037331 4289622617
-0.30538055 0.066472292 -0.07815589 4290215265
-0.30544218 0.068337075 -0.078334659 4289760627
-0.31472209 -0.019133875 -0.095991656 4286738530
-0.31370741 -0.017351355 -0.094182193 4284966745
-0.31270301 -0.015584173 -0.092391156 4284309073
-0.31135964 -0.013863586 -0.089972377 4284043079
-0.3100341 -0.012163204 -0.087585777 4286858817
-0.30872604 -0.010482611 -0.085230775 4287517504
-0.30348873 -0.0092806118 -0.075601183 4286796871
-0.30194601 -0.0077066896 -0.072808877 4286673494
-0.29949415 -0.0062801144 -0.068332009 4287915584
-0.29620069 -0.0050151679 -0.062294967 4288117333
-0.29477051 -0.003524513 -0.059707526 4287260240
-0.29307202 -0.0021005727 -0.056622088 4285613376
-0.29168925 -0.00065178884 -0.0541206 4285820762
-0.29117465 0.00092845445 -0.053227499 4285220929
-0.29038149 0.0024489739 -0.051817674 4286003757
-0.28931698 0.0039038539 -0.049904291 4285741101
-0.28854036 0.0054001142 -0.048524216 4284235325
-0.28777072 0.0068855225 -0.047156516 4282729285
-0.2864674 0.008240181 -0.044798478 4282337095
-0.28518307 0.0095775165 -0.042474799 4282205774
-0.28417957 0.010960777 -0.040671501 4281878102
-0.28344774 0.012395107 -0.039371867 4281815139
-0.28272226 0.013819412 -0.038083583 4281948779
-0.28200305 0.015233849 -0.036806498 4281947755
-0.28154451 0.016708562 -0.036013052 4281815906
-0.28083551 0.018105296 -0.034754213 4281945694
-0.28013259 0.019492498 -0.033506215 4282272861
-0.27993435 0.021020863 -0.033195466 4283845981
-0.27973676 0.022547241 -0.032885868 4287580506
-0.2792913 0.023992129 -0.032115526 4290728527
-0.27959195 0.025675625 -0.032731846 4290340696
-0.27964419 0.027281962 -0.032886598 4287983469
-0.28019595 0.029063668 -0.033970308 4288501343
-0.28125617 0.031037336 -0.036000077 4291312961
-0.28232852 0.033035789 -0.038053114 4292428860
-0.28393328 0.03525367 -0.041097518 4290924882
-0.28530091 0.037411004 -0.043701753 4288372333
-0.28722727 0.039812993 -0.047346815 4287201676
-0.28782427 0.041718662 -0.048518553 4285898658
-0.28869876 0.043750104 -0.050207373 4283787915
