# .PCD v0.7 - Point Cloud Data file format
VERSION 0.7
FIELDS x y z rgba
SIZE 4 4 4 4
TYPE F F F U
COUNT 1 1 1 1
WIDTH 1004
HEIGHT 1
VIEWPOINT 0 0 0 1 0 0 0
POINTS 1004
DATA ascii
-0.38837904 -0.053016394 -0.11772349 4290984506
-0.38624531 -0.050772857 -0.11466701 4292753454
-0.38414469 -0.04856113 -0.11165798 4293015852
-0.38261417 -0.046406671 -0.10947514 4292952370
-0.38163516 -0.044296138 -0.10809171 4292953658
-0.38066372 -0.042198844 -0.10671904 4293222993
-0.38022795 -0.040128712 -0.10612313 4293429100
-0.37979397 -0.038063612 -0.10552974 4293286982
-0.37936172 -0.036003511 -0.10493878 4293343274
-0.37945595 -0.033950664 -0.10511157 4293277743
-0.37955034 -0.031895023 -0.1052846 4293213745
-0.37964484 -0.029836532 -0.10545786 4292953663
-0.37973946 -0.027775193 -0.10563138 4293091920
-0.37983423 -0.025711006 -0.10580512 4293292381
-0.3799291 -0.023643969 -0.10597912 4293478195
-0.38002414 -0.02157405 -0.10615335 4293479484
-0.38011929 -0.019501315 -0.1063278 4294222436
-0.38127282 -0.017367452 -0.10803903 4293292118
-0.38136861 -0.015281055 -0.10821463 4293554764
-0.38199705 -0.013154506 -0.10916379 4293676871
-0.38209328 -0.011058307 -0.10934024 4293412413
-0.38218963 -0.0089592086 -0.10951693 4293409584
-0.38175306 -0.0069063785 -0.10891956 4293277231
-0.38184953 -0.0048054322 -0.10909641 4293214264
-0.38088527 -0.0028153493 -0.10773233 4291780699
-0.37992847 -0.00083735603 -0.10637882 4287057244
-0.38002461 0.0012564755 -0.10655507 4282866035
-0.37907487 0.0032175339 -0.10521152 4282277235
-0.3781324 0.0051668072 -0.1038783 4282408056
-0.37822822 0.0072536571 -0.10405394 4283393402
-0.3788428 0.0094223591 -0.10498375 4287665017
-0.40235251 -0.076279238 -0.14149579 4286544743
-0.40245214 -0.074085064 -0.14168151 4286213983
-0.40192938 -0.071806826 -0.14095762 4287132000
-0.40140894 -0.069535039 -0.14023697 4286868063
-0.40027553 -0.067198552 -0.13862012 4285162595
-0.39915156 -0.064878277 -0.13701682 4283785063
-0.39743376 -0.06251318 -0.13454492 4282931812
-0.39455208 -0.060063247 -0.13037065 4282471261
-0.39172807 -0.057659291 -0.12627991 4282667355
-0.38839385 -0.055255484 -0.12144219 4283976790
-0.38624626 -0.052983958 -0.11833939 4288102471
-0.38413221 -0.050744861 -0.11528506 4292097843
-0.38205084 -0.048537478 -0.11227801 4293014829
-0.38053423 -0.046387117 -0.11009675 4293015599
-0.37956399 -0.044280551 -0.1087146 4292952116
-0.37860122 -0.042187143 -0.10734315 4293023046
-0.37816915 -0.040120799 -0.10674816 4293428823
-0.3777388 -0.038059492 -0.10615563 4293494871
-0.37783188 -0.036009323 -0.10632914 4293283131
-0.37792507 -0.033956338 -0.10650291 4293407533
-0.37801841 -0.031900533 -0.10667691 4293474351
-0.37811184 -0.029841881 -0.10685116 4293149492
-0.3776831 -0.027789749 -0.1062608 4293086784
-0.37777665 -0.02572933 -0.10643517 4293089611
-0.37734959 -0.023683149 -0.10584718 4293543230
-0.37796408 -0.0215999 -0.1067847 4293476153
-0.37858102 -0.019505879 -0.107726 4293808966
-0.37867525 -0.017430101 -0.10790168 4294013772
-0.37929502 -0.015318455 -0.10884743 4293619019
-0.37991723 -0.013195856 -0.10979696 4293343551
-0.38001221 -0.01110351 -0.10997406 4293539373
-0.38010731 -0.00900824 -0.1101514 4293473840
-0.38020256 -0.0069100466 -0.11032899 4293474349
-0.37924337 -0.0049147108 -0.108961 4293605936
-0.37881404 -0.0028752242 -0.10836956 4293286462
-0.37786579 -0.00090057502 -0.10701714 4291778381
-0.3774417 0.0011257103 -0.10643318 4285620073
-0.37547952 0.0029464304 -0.10359352 4282539378
-0.37557375 0.0050227516 -0.10376927 4282276722
-0.37566814 0.0071019437 -0.10394525 4282342773
-0.37576264 0.0091840895 -0.10412148 4283917941
-0.37585729 0.011269106 -0.10429795 4288977020
-0.40007815 -0.076198377 -0.14208801 4286609000
-0.40017644 -0.074008577 -0.14227436 4285818975
-0.39904439 -0.071654633 -0.14064632 4287197278
-0.3979218 -0.069317065 -0.13903192 4287722079
-0.39680851 -0.066995673 -0.13743094 4286279264
-0.39510724 -0.064625271 -0.13496231 4284771684
-0.39342675 -0.062280685 -0.13252386 4283657573
-0.39176661 -0.05996142 -0.13011503 4282736481
-0.38955233 -0.057617351 -0.12688805 4282470493
-0.38624927 -0.055218585 -0.12205363 4282732636
-0.3841216 -0.052951649 -0.11895314 4284763222
-0.38202703 -0.050717007 -0.1159009 4289086019
-0.38050056 -0.048544317 -0.11368683 4292425777
-0.37899181 -0.046393782 -0.11149845 4293080619
-0.37802643 -0.044287 -0.11011191 4293081902
-0.37706846 -0.042193461 -0.10873611 4292889655
-0.37716058 -0.040140994 -0.10891078 4293092426
-0.3762098 -0.03806546 -0.10754524 4293494117
-0.3763018 -0.036015131 -0.10771974 4293489504
-0.37587506 -0.033959694 -0.10712797 4293412155
-0.37596714 -0.031907618 -0.10730263 4293473325
-0.37554207 -0.029858131 -0.10671323 4293278766
-0.37563425 -0.027804276 -0.10688803 4293019190
-0.37521085 -0.025760714 -0.10630099 4293020738
-0.37530312 -0.02370506 -0.10647593 4293286485
-0.37539551 -0.021646542 -0.10665113 4293550665
-0.37600425 -0.019560382 -0.10758963 4293345089
-0.37661541 -0.017463459 -0.10853191 4293483611
-0.37722901 -0.015355709 -0.109478 4293825127
-0.37784508 -0.013237077 -0.11042796 4293149785
-0.37793881 -0.011148507 -0.11060571 4293670699
-0.37803265 -0.0090570515 -0.11078371 4293605422
-0.37812665 -0.0069627021 -0.11096196 4293736238
-0.37769744 -0.004918199 -0.11036628 4293670703
-0.37675041 -0.0029348782 -0.10900458 4293673012
-0.37529668 -0.0010231541 -0.106893 4293280571
-0.37487796 0.00099589641 -0.10631242 4290531153
-0.37294105 0.0028109821 -0.10348522 4284569194
-0.37303391 0.0048797419 -0.10366128 4282210929
-0.37312689 0.006951388 -0.10383759 4282341998
-0.37321997 0.0090259276 -0.10401416 4282604396
-0.37280965 0.01102205 -0.10344552 4284967032
-0.39904082 -0.076297849 -0.14450485 4286739815
-0.39790991 -0.073932417 -0.14286502 4285424478
-0.39678839 -0.071583465 -0.14123888 4286540637
-0.39507547 -0.069176152 -0.13873227 4288115293
-0.3939772 -0.066864625 -0.1371401 4287592289
-0.39229897 -0.064504467 -0.13468428 4285887588
-0.39064106 -0.062169887 -0.13225833 4284901985
-0.38957852 -0.059914749 -0.13071832 4283981409
-0.38738501 -0.057575572 -0.12749395 4282733150
-0.38466844 -0.055226043 -0.12349018 4282405469
-0.38255206 -0.052958883 -0.12037943 4283061599
-0.38046855 -0.050724048 -0.11731715 4285943893
-0.37895009 -0.048551153 -0.11509585 4290596678
-0.37744918 -0.046400417 -0.11290034 4292820017
-0.37754068 -0.044337753 -0.11307686 4293343021
-0.37657991 -0.042235874 -0.11168552 4292953652
-0.37510714 -0.040133085 -0.10953095 4292763204
-0.37468049 -0.038071427 -0.10893509 4293224024
-0.37374175 -0.036008567 -0.10757585 4293224815
-0.37383252 -0.033963036 -0.10775088 4293157462
-0.37341109 -0.031916212 -0.10716247 4293212473
-0.37350193 -0.029868897 -0.10733767 4293215802
-0.37308216 -0.027827958 -0.10675162 4293287503
-0.37266412 -0.025791887 -0.10616805 4292954172
-0.37275499 -0.023743788 -0.10634331 4293218372
-0.37284598 -0.021692865 -0.10651881 4293685076
-0.37344658 -0.019614439 -0.10745448 4293544258
-0.37404957 -0.017525388 -0.10839393 4293346627
-0.37465498 -0.015425547 -0.1093372 4293414483
-0.3752628 -0.013314894 -0.11028425 4293540404
-0.37535509 -0.011234086 -0.11046231 4293670438
-0.37544754 -0.0091503765 -0.11064062 4293605422
-0.37502381 -0.0071121934 -0.11004859 4293670188
-0.37460178 -0.0050788186 -0.10945904 4293604908
-0.37418148 -0.0030502039 -0.10887195 4293605934
-0.37274656 -0.0011448223 -0.10676999 4293474607
-0.37132776 0.00074216846 -0.10469172 4292951610
-0.37042114 0.0026765529 -0.10337794 4289873490
-0.37051263 0.0047378181 -0.10355431 4284243055
-0.37060419 0.0068019181 -0.10373095 4282144884
-0.37069589 0.0088689337 -0.10390782 4282276462
-0.37029073 0.01085813 -0.10334249 4282735985
-0.37087971 0.013011659 -0.10426233 4285622646
-0.39738458 -0.076307163 -0.1460097 4287067494
-0.3962594 -0.073941514 -0.14436468 4285161309
-0.39574823 -0.071672499 -0.14364134 4285817946
-0.39403707 -0.069259554 -0.14111586 4287786327
-0.39175656 -0.066803753 -0.13773483 4288509019
-0.39009404 -0.064448573 -0.13528137 4287131487
-0.3878774 -0.062059969 -0.13199505 4285686623
-0.38682911 -0.059814122 -0.13046329 4284504674
-0.38522601 -0.057533961 -0.12809767 4283061089
-0.38308737 -0.055233501 -0.12492692 4282471005
-0.38152841 -0.053005736 -0.12262667 4282537310
-0.37998778 -0.050801083 -0.12035353 4283781982
-0.37846518 -0.0486192 -0.11810701 4287319383
-0.37855637 -0.046539303 -0.11828597 4291705411
-0.37705106 -0.044388901 -0.11606485 4293146934
-0.37452054 -0.042224076 -0.11230194 4293088066
-0.37306121 -0.040125202 -0.11014894 4292701784
-0.37263826 -0.0380673 -0.10955404 4292695381
-0.37170789 -0.036008175 -0.10819597 4293221986
-0.37129009 -0.033964019 -0.10760855 4293822296
-0.37087399 -0.031924739 -0.1070236 4293287766
-0.37096345 -0.029884949 -0.1071991 4293219397
-0.37054896 -0.027851498 -0.10661646 4293162856
-0.37063852 -0.025809886 -0.10679211 4293152598
-0.37022567 -0.023782223 -0.10621184 4293082940
-0.36981449 -0.021759326 -0.10563394 4293546299
-0.37040502 -0.019692548 -0.10656372 4293674809
-0.37099785 -0.017615218 -0.10749721 4293411387
-0.37159309 -0.0155272 -0.10843443 4293604656
-0.37219065 -0.013428477 -0.10937544 4293801256
-0.3722814 -0.011359244 -0.10955347 4293670442
-0.37237227 -0.0092871469 -0.10973176 4293540398
-0.37195563 -0.0072600208 -0.10914576 4293539884
-0.37154067 -0.0052376394 -0.10856216 4293604396
-0.3711274 -0.0032199377 -0.10798102 4293606190
-0.37021518 -0.001265583 -0.10664811 4293539884
-0.36881465 0.00061524485 -0.1045792 4293278776
-0.36791962 0.0025431274 -0.10327162 4292694864
-0.36800972 0.0045969058 -0.10344832 4289292135
-0.3680999 0.0066535855 -0.10362529 4283718266
-0.3681902 0.0087131364 -0.10380249 4282212217
-0.36779007 0.010695417 -0.10324039 4282080379
-0.36837122 0.012840859 -0.10415765 4282932592
-0.36846194 0.014909068 -0.10433558 4286477937
-0.39695239 -0.076498047 -0.14936939 4287328870
-0.39582324 -0.074121647 -0.14770465 4284964188
-0.39409974 -0.07168144 -0.14513919 4285096024
-0.39299414 -0.069343284 -0.1435094 4286998612
-0.3907164 -0.066881649 -0.14010306 4288638035
-0.3884756 -0.06445685 -0.13675199 4288310358
-0.38684189 -0.062126931 -0.13432048 4286474843
-0.38579458 -0.059876174 -0.13277741 4284769375
-0.38419333 -0.05759095 -0.13039424 4283260513
-0.38261124 -0.055329919 -0.12803964 4282406494
-0.3815974 -0.053132735 -0.12654628 4282274399
-0.38004625 -0.050914254 -0.12423776 4282536550
-0.38013732 -0.04881268 -0.12441957 4284436067
-0.37914342 -0.046653718 -0.12295564 4288694612
-0.37762195 -0.044485845 -0.12069112 4292364619
-0.37506551 -0.042303301 -0.11685593 4293218375
-0.37359086 -0.040187761 -0.1146614 4292965733
-0.37264684 -0.038103696 -0.11327172 4292762204
-0.37171015 -0.036032606 -0.11189279 4293155144
-0.36976978 -0.033969648 -0.10899028 4293361237
-0.3693555 -0.031930197 -0.10840369 4292962650
-0.36894286 -0.0298956 -0.10781954 4293354057
-0.36853191 -0.027865769 -0.1072378 4293293659
-0.36812261 -0.025840733 -0.10665848 4293495149
-0.36771494 -0.023820408 -0.10608158 4292958022
-0.36730894 -0.021804793 -0.10550705 4293148721
-0.36789155 -0.01974564 -0.10643407 4293542203
-0.36847645 -0.017675998 -0.10736479 4293549390
-0.36856523 -0.015627718 -0.10754199 4293475380
-0.36915275 -0.013540824 -0.10847702 4293735465
-0.36924192 -0.011483026 -0.10865504 4293735210
-0.36883229 -0.0094658546 -0.10807503 4293670446
-0.36892155 -0.0074062007 -0.1082532 4293735980
-0.36851352 -0.005394679 -0.10767554 4293670445
-0.36810714 -0.0033877774 -0.10710025 4293540909
-0.36623108 -0.0015589986 -0.10429052 4293604909
-0.36631986 0.00048923644 -0.10446769 4293473840
-0.36592162 0.0024753804 -0.10390437 4293085766
-0.36552498 0.0044570733 -0.10334338 4291917683
-0.36561379 0.0065063173 -0.10352065 4286863472
-0.36570272 0.0085584475 -0.10369816 4283194483
-0.3657918 0.010613471 -0.10387594 4282278008
-0.36588097 0.012671345 -0.10405397 4282474099
-0.36597028 0.014732111 -0.10423223 4283261038
-0.36605972 0.016795764 -0.10441076 4286872944
-0.39651641 -0.076690547 -0.15275747 4287460455
-0.39538318 -0.074303269 -0.15107265 4284964445
-0.3936542 -0.071851678 -0.1484767 4284702296
-0.39194667 -0.069427364 -0.14591303 4286407252
-0.38908562 -0.066890158 -0.14158486 4288374608
-0.38685691 -0.064465135 -0.13822284 4288834642
-0.38523185 -0.062135007 -0.13578348 4287524695
-0.3841899 -0.059884079 -0.13423556 4285557595
-0.3831563 -0.057648163 -0.13270016 4283851101
-0.38268822 -0.055472203 -0.13202965 4282734174
-0.38166699 -0.053261269 -0.13051264 4282208351
-0.38175794 -0.051137436 -0.13069734 4282077285
-0.38074467 -0.048946518 -0.1291921 4282667110
-0.37973946 -0.046769924 -0.1276989 4285289053
-0.37820154 -0.044584271 -0.1253899 4289810773
-0.37403944 -0.04232806 -0.11906283 4292626504
-0.37205026 -0.040193934 -0.11606153 4293223774
-0.37111107 -0.038109712 -0.11466747 4292890455
-0.37119925 -0.036050964 -0.11484652 4292955455
-0.36824924 -0.033975273 -0.11037222 4293154370
-0.36733875 -0.031937152 -0.10902112 4293416785
-0.36692962 -0.029906182 -0.10843787 4293554018
-0.36602935 -0.02788903 -0.10710202 4293420111
-0.3656252 -0.025871318 -0.10652606 4293693024
-0.36522263 -0.023858272 -0.10595246 4293494876
-0.3648217 -0.021849895 -0.1053813 4293087806
-0.3653965 -0.019798337 -0.10630559 4293542455
-0.36548364 -0.017764151 -0.1064825 4293613639
-0.36606097 -0.015695531 -0.10741109 4293419858
-0.3661485 -0.013651878 -0.10758884 4293604144
-0.36623615 -0.011605431 -0.10776681 4293734701
-0.36632392 -0.0095560914 -0.10794506 4293735983
-0.36641181 -0.0075039328 -0.10812354 4293802285
-0.36600885 -0.0054995366 -0.10754921 4293735980
-0.36560759 -0.0034997191 -0.10697729 4293801003
-0.36472207 -0.0015620693 -0.1056623 4293669932
-0.36432558 0.00042514724 -0.10509749 4293670190
-0.36393073 0.0024078831 -0.10453502 4293475123
-0.36401838 0.0044544553 -0.10471302 4293090378
-0.36410612 0.0065038619 -0.10489127 4290995036
-0.36419404 0.0085561546 -0.10506975 4286795621
-0.36428204 0.010611333 -0.1052485 4283259506
-0.36437017 0.012669369 -0.1054275 4282407534
-0.36445844 0.014730291 -0.10560676 4282341992
-0.36454684 0.016794099 -0.10578624 4283588711
-0.36463535 0.018860791 -0.10596599 4287860337
-0.39669576 -0.076977603 -0.15712948 4287395175
-0.3943274 -0.074399263 -0.15352537 4285030491
-0.3926003 -0.071941815 -0.15090978 4284570967
-0.39089465 -0.069511794 -0.14832683 4286143312
-0.38862255 -0.067038387 -0.14486916 4287979339
-0.38638747 -0.064602181 -0.14146791 4288767822
-0.38418847 -0.062202271 -0.13812168 4288442197
-0.38314745 -0.059946381 -0.13656221 4286803547
-0.38211489 -0.0577056 -0.13501547 4284702812
-0.38276592 -0.055616204 -0.13606782 4283520608
-0.38173714 -0.053391308 -0.13452664 4282798434
-0.38182756 -0.051254645 -0.13471346 4282273887
-0.3813614 -0.04908248 -0.13404073 4282143332
-0.37979442 -0.046859972 -0.13166752 4283061864
-0.37878999 -0.044684246 -0.13016291 4286206565
-0.37511495 -0.04242764 -0.12453186 4290857045
-0.37205616 -0.040243089 -0.11985179 4292955978
-0.37008491 -0.038125947 -0.11685134 4292960851
-0.36966217 -0.036056817 -0.11624347 4292900444
-0.36623159 -0.033978563 -0.11098639 4292828235
-0.3653293 -0.031944107 -0.10963646 4293350992
-0.36443383 -0.029922005 -0.10829686 4293693044
-0.36354512 -0.027912116 -0.10696741 4293489253
-0.36314604 -0.025901675 -0.10639482 4293881177
-0.36274856 -0.023895884 -0.10582457 4293892986
-0.36283407 -0.021874655 -0.10600131 4292696415
-0.36291972 -0.019850641 -0.10617829 4293083962
-0.36300549 -0.017823817 -0.10635553 4293543738
-0.36309135 -0.01579418 -0.106533 4293751895
-0.3636612 -0.013726595 -0.10745943 4293211723
-0.36374748 -0.01168754 -0.10763773 4293669167
-0.36383387 -0.0096456651 -0.10781626 4293670447
-0.36392039 -0.0076009408 -0.10799506 4293669678
-0.36352253 -0.0056036487 -0.10742408 4293670189
-0.36312625 -0.0036108566 -0.10685541 4293735466
-0.36273155 -0.0016225749 -0.10628913 4293604908
-0.36233845 0.00036125575 -0.1057252 4293604910
-0.36242494 0.0024051412 -0.1059039 4293539375
-0.36203331 0.0043836115 -0.10534216 4293607221
-0.36211988 0.0064294413 -0.10552104 4293222465
-0.36220658 0.0084781274 -0.10570018 4291582286
-0.36181644 0.010450421 -0.10514062 4286142565
-0.36190322 0.01250108 -0.10531992 4282864742
-0.36199012 0.01455461 -0.10549948 4282406752
-0.36207712 0.016611014 -0.1056793 4282734432
-0.36216426 0.018670332 -0.10585938 4284310887
-0.36177555 0.020634744 -0.10530182 4288714099
-0.3968772 -0.077268332 -0.16155738 4287395687
-0.39449126 -0.074671127 -0.15789439 4285162330
-0.39214519 -0.072114214 -0.15429264 4284570965
-0.39103284 -0.069749534 -0.15261115 4285945677
-0.38874444 -0.067258738 -0.14909793 4287519815
-0.38649356 -0.064805649 -0.14564237 4288373322
-0.38485205 -0.062449507 -0.14313516 4288768080
-0.38379887 -0.060174253 -0.14154388 4287917399
-0.3827543 -0.057914365 -0.13996571 4285883995
-0.38341066 -0.055808358 -0.14103746 4284308575
-0.38350093 -0.053648669 -0.14122732 4283258725
-0.38246 -0.051410682 -0.13965434 4282340194
-0.38255018 -0.049253762 -0.13984394 4282209121
-0.3815175 -0.047036421 -0.13828337 4282340971
-0.3804931 -0.044833809 -0.13673538 4283716465
-0.37892735 -0.042626143 -0.13434295 4287975013
-0.37629983 -0.040411398 -0.13029447 4292166988
-0.3726719 -0.038215455 -0.12468492 4293155655
-0.36812484 -0.036062669 -0.11764063 4293100387
-0.36422125 -0.033981837 -0.11159843 4292835171
-0.36284027 -0.031952467 -0.10949023 4293025096
-0.36195633 -0.029937701 -0.10815707 4293296221
-0.36107907 -0.027935028 -0.10683405 4293429360
-0.36068496 -0.025931807 -0.10626474 4293419621
-0.36029243 -0.023933189 -0.10569778 4293945193
-0.3603766 -0.021919273 -0.10587483 4293428079
-0.35998562 -0.019926149 -0.10531014 4293154903
-0.36054531 -0.01788304 -0.10622965 4293213489
-0.36062983 -0.01586072 -0.10640743 4293480777
-0.36119202 -0.013800764 -0.10733117 4293353566
-0.36127692 -0.011769073 -0.10750978 4293415490
-0.36136198 -0.0097345738 -0.10768862 4293669163
-0.36144713 -0.0076972628 -0.10786772 4293669163
-0.36153242 -0.0056570955 -0.10804707 4293669930
-0.36066297 -0.0037211508 -0.10673469 4293670953
-0.36074817 -0.0016828234 -0.10691388 4293473579
-0.36035833 0.00029763987 -0.10635076 4293539887
-0.35997006 0.0022736622 -0.10578996 4293539117
-0.36005533 0.0043130284 -0.10596923 4293735981
-0.36014068 0.0063552656 -0.10614876 4293805104
-0.36022618 0.0084003592 -0.10632854 4293542968
-0.35983935 0.010369347 -0.10576984 4290528325
-0.35945404 0.012334019 -0.10521337 4284895066
-0.35953957 0.01438021 -0.10539324 4282537054
-0.35962522 0.016429266 -0.10557337 4282537054
-0.35971099 0.018481223 -0.10575375 4282865249
-0.35932711 0.020439016 -0.10519937 4284901736
-0.35941297 0.022492955 -0.10537995 4289370748
-0.39706066 -0.077562757 -0.1660421 4287264870
-0.3946569 -0.074946426 -0.162319 4285294171
-0.39229357 -0.072370961 -0.15865859 4284637013
-0.38937199 -0.069758371 -0.15412028 4285619278
-0.3882747 -0.067410044 -0.15244772 4286996039
-0.3866007 -0.065011635 -0.14986846 4287848262
-0.38494739 -0.062639646 -0.14732108 4288504137
-0.38388628 -0.060349569 -0.14570406 4288505422
-0.38283393 -0.058075096 -0.14410052 4287194965
-0.38292333 -0.05590947 -0.14429191 4285030746
-0.38358307 -0.053783473 -0.14538026 4283391073
-0.38310254 -0.051569283 -0.14467546 4282472291
-0.382624 -0.049361065 -0.14397377 4282274400
-0.38158366 -0.047129735 -0.14238816 4282209126
-0.37999448 -0.044889014 -0.13993865 4282537327
-0.37842432 -0.042672064 -0.13751863 4284831848
-0.37633058 -0.040463194 -0.13427408 4289547600
-0.37320784 -0.038264349 -0.12940931 4292693825
-0.36810565 -0.036087643 -0.12142787 4293158744
-0.36270571 -0.03398747 -0.11297584 4292831076
-0.36084992 -0.031959347 -0.11010168 4293024326
-0.359974 -0.029948104 -0.10876971 4292894024
-0.3586309 -0.027957769 -0.10670187 4293363812
-0.35824177 -0.025961744 -0.10613586 4293298034
-0.3578541 -0.023970252 -0.10557214 4293355103
-0.35793695 -0.021963565 -0.10574949 4293164145
-0.35755083 -0.019977501 -0.10518803 4292962151
-0.35810298 -0.017941859 -0.10610491 4293089595
-0.35818619 -0.015926803 -0.10628299 4293017146
-0.35826948 -0.013908958 -0.10646132 4293421391
-0.35882437 -0.01185 -0.10738299 4293358934
-0.35890806 -0.009822825 -0.10756215 4293865513
-0.35899186 -0.0077928454 -0.10774155 4293931049
-0.3581337 -0.0058588297 -0.10643578 4293801258
-0.35821745 -0.0038306608 -0.10661502 4293670954
-0.35830128 -0.0017996425 -0.10679451 4293539114
-0.35791636 0.00017394933 -0.10623468 4293604652
-0.35800028 0.0022069041 -0.10641434 4293604394
-0.35761681 0.0041752229 -0.10585665 4293735723
-0.35770082 0.006210166 -0.10603648 4293802029
-0.35778496 0.008247951 -0.10621659 4293670446
-0.35740295 0.010210199 -0.10566106 4292950322
-0.35702246 0.012168174 -0.10510782 4289545028
-0.35710663 0.014207087 -0.10528801 4284436056
-0.35719091 0.016248848 -0.10546846 4282536542
-0.35727534 0.018293496 -0.10564914 4282405982
-0.35689619 0.020244677 -0.10509793 4282930786
-0.35698071 0.022291349 -0.10527879 4285689199
-0.39788139 -0.077958025 -0.17159165 4286806376
-0.39482445 -0.075225256 -0.16680036 4285295198
-0.39244357 -0.072630972 -0.16308004 4284702805
-0.38950098 -0.069999129 -0.15846817 4285687121
-0.38839519 -0.067635007 -0.15676811 4286998604
-0.38670897 -0.065220177 -0.15414718 4287718215
-0.38504365 -0.062832132 -0.15155876 4288110406
-0.38397452 -0.060527056 -0.14991558 4288438603
-0.38291425 -0.058237802 -0.14828606 4287980625
-0.38300309 -0.056058768 -0.14847966 4286276951
-0.38366592 -0.053919889 -0.14958428 4284243803
-0.38318115 -0.051691748 -0.14886762 4282865758
-0.38269842 -0.049469642 -0.14815415 4282209121
-0.38165039 -0.047224183 -0.14654304 4282077538
-0.38061085 -0.044993859 -0.1449451 4282143846
-0.37791702 -0.042718321 -0.14071982 4282931301
-0.37527657 -0.040484853 -0.1365784 4285815386
-0.372159 -0.038281295 -0.13167813 4290666319
-0.36808598 -0.036112897 -0.125259 4292694606
-0.36118993 -0.033993069 -0.11435344 4292828502
-0.35982382 -0.031963315 -0.11223176 4293095003
-0.35799873 -0.029958498 -0.10938028 4292761932
-0.3571372 -0.027962836 -0.10805947 4293224788
-0.35581619 -0.025991431 -0.1060081 4293300594
-0.35589775 -0.023991052 -0.10618581 4293166702
-0.35597944 -0.021987887 -0.10636377 4292961121
-0.35559657 -0.02000525 -0.10580319 4293163116
-0.35567832 -0.018000217 -0.10598133 4293232222
-0.35576019 -0.015992401 -0.1061597 4292826177
-0.35537872 -0.014015997 -0.10560121 4293347895
-0.35592425 -0.011968369 -0.10651721 4293546046
-0.35600644 -0.0099521838 -0.10669634 4293931562
-0.35608876 -0.0079331566 -0.10687573 4293865514
-0.35570714 -0.0059602922 -0.10631691 4293801514
-0.35578954 -0.0039393357 -0.10649645 4293735978
-0.35587206 -0.0019155749 -0.10667624 4293669929
-0.35595471 0.00011099058 -0.10685628 4293670185
-0.35557452 0.0020768645 -0.10629956 4293669674
-0.35519585 0.0040384494 -0.10574512 4293801002
-0.35527852 0.0060661202 -0.10592526 4293801773
-0.35536131 0.0080966549 -0.10610566 4293735980
-0.35498402 0.010052211 -0.10555331 4293605165
-0.35460824 0.012003529 -0.10500323 4292688692
-0.35469106 0.014035206 -0.10518373 4288823879
-0.35477403 0.016069733 -0.10536447 4284107868
-0.35485712 0.018107131 -0.10554548 4282471263
-0.35448271 0.020051751 -0.10499742 4282471520
-0.35456586 0.022091176 -0.10517861 4283193702
-0.35464913 0.02413344 -0.10536005 4286740340
-0.397434 -0.078163058 -0.17518663 4286544488
-0.39499384 -0.075507663 -0.17133954 4285098075
-0.3925952 -0.072894298 -0.16755806 4284637526
-0.38963136 -0.070242949 -0.16287112 4285885523
-0.38791856 -0.06778945 -0.16018534 4287328591
-0.38622716 -0.065363482 -0.15753329 4287785547
-0.38339603 -0.062840402 -0.15305592 4287914057
-0.3823325 -0.060535133 -0.15140767 4288240715
-0.38242048 -0.058350023 -0.1516028 4288438351
-0.38136554 -0.056066476 -0.14996774 4287653973
-0.38202393 -0.05392747 -0.15107641 4285490265
-0.38154137 -0.051699139 -0.15035777 4283652442
-0.38106087 -0.049476877 -0.14964232 4282537056
-0.38001835 -0.047231246 -0.1480262 4282143074
-0.37954408 -0.045025498 -0.1473203 4282274144
-0.37685442 -0.042744927 -0.14306393 4282340708
-0.37475845 -0.040522017 -0.13975804 4283456100
-0.37163368 -0.038309243 -0.13480216 4287519327
-0.3670401 -0.036125328 -0.12749037 4291380818
-0.36015758 -0.034001037 -0.11650675 4292826694
-0.35831523 -0.031968754 -0.11360286 4293032292
-0.35650027 -0.029963734 -0.11074218 4292703836
-0.35517681 -0.02797666 -0.10866916 4292764494
-0.35386795 -0.026008658 -0.10661911 4293097055
-0.35394835 -0.024011748 -0.10679747 4293300853
-0.3535687 -0.022031683 -0.10623776 4293292391
-0.35319063 -0.020056063 -0.10568037 4293357669
-0.35327104 -0.018058145 -0.10585882 4293102203
-0.35335159 -0.016057489 -0.10603749 4293096291
-0.35297492 -0.014088025 -0.10548221 4293213495
-0.353513 -0.012047833 -0.10639559 4293539627
-0.35359389 -0.01003883 -0.10657502 4293735210
-0.35367489 -0.0080270302 -0.10675468 4293734444
-0.35329804 -0.0060609891 -0.10619913 4293669417
-0.35337913 -0.0040472606 -0.10637896 4293735464
-0.35346031 -0.0020306977 -0.10655906 4293735977
-0.35354158 -1.1345078e-05 -0.10673941 4293604906
-0.35316613 0.0019477762 -0.10618587 4293735212
-0.35324752 0.003969132 -0.10636638 4293801771
-0.3528735 0.0059231259 -0.10581503 4293866796
-0.35295492 0.0079464559 -0.10599574 4293801259
-0.35258237 0.0098953694 -0.10544655 4293736493
-0.35221124 0.011840077 -0.10489959 4293540144
-0.35229275 0.01386458 -0.1050804 4292295735
-0.35237437 0.015891915 -0.10526145 4287645263
-0.35245609 0.017922116 -0.10544278 4283584605
-0.35208634 0.019860208 -0.10489785 4282406242
-0.35216814 0.021892441 -0.10507936 4282407273
-0.35225007 0.02392753 -0.1052611 4283523952
-0.35233212 0.025965484 -0.10544311 4287793528
-0.39762387 -0.07846909 -0.17984872 4286413155
-0.39453444 -0.075701118 -0.17491928 4284965720
-0.39212838 -0.073074795 -0.17109221 4284637526
-0.38976312 -0.070489846 -0.16733015 4285753940
-0.38743764 -0.067945197 -0.16363142 4287127881
-0.38574111 -0.065508001 -0.1609478 4287520328
-0.38348278 -0.063035324 -0.1573559 4287782734
-0.38357043 -0.060830496 -0.15755385 4287978574
-0.38192242 -0.058463179 -0.15494706 4288306508
-0.38086408 -0.056169674 -0.15329261 4288373585
-0.38038167 -0.053935051 -0.15256879 4286997590
-0.37990132 -0.05170656 -0.15184815 4284702039
-0.37942305 -0.049484108 -0.15113069 4283127644
-0.37894687 -0.04726769 -0.15041646 4282406242
-0.37847272 -0.045057233 -0.1497054 4282340192
-0.37744391 -0.042832334 -0.14809702 4282274656
-0.37477958 -0.040575121 -0.14384261 4282602596
-0.37163499 -0.038348462 -0.13881013 4284371304
-0.36752841 -0.036157634 -0.1322199 4288496221
-0.35960552 -0.034011465 -0.11945224 4292362816
-0.35728201 -0.031972766 -0.11574385 4293089617
-0.3550016 -0.029968973 -0.11210428 4292770402
-0.35322335 -0.02799046 -0.10927675 4292507487
-0.35192657 -0.026025787 -0.10722807 4292632655
-0.35155022 -0.024048245 -0.10666933 4293166441
-0.35117534 -0.022075161 -0.10611288 4293359989
-0.35080191 -0.020106476 -0.10555866 4293022308
-0.35088104 -0.018115686 -0.1057374 4293027434
-0.35096025 -0.016122133 -0.10591638 4293294204
-0.35058826 -0.014159534 -0.10536427 4292821847
-0.35111907 -0.012126722 -0.10627507 4293082153
-0.35119861 -0.010124858 -0.1064548 4293408042
-0.35037637 -0.0082092257 -0.10517284 4293603628
-0.35090616 -0.0061609834 -0.10608237 4293734696
-0.35098588 -0.0041543934 -0.10626252 4293800232
-0.35106575 -0.0021449837 -0.10644293 4293670441
-0.35114571 -0.00013279193 -0.10662358 4293605162
-0.35077494 0.0018196214 -0.10607322 4293669674
-0.35085499 0.0038338238 -0.10625403 4293735210
-0.35048562 0.0057811555 -0.10570581 4293867052
-0.35056573 0.007797339 -0.10588682 4293735468
-0.35019779 0.0097396504 -0.10534079 4293670961
-0.34983125 0.011677809 -0.10479695 4293871421
-0.34991142 0.01369518 -0.10497805 4293474869
-0.34999174 0.015715377 -0.10515941 4291182146
-0.35007212 0.017738432 -0.10534104 4285944418
-0.34970692 0.019670051 -0.10479918 4282735727
-0.34978741 0.021695137 -0.10498098 4282081915
-0.34942362 0.023621902 -0.1044413 4282278522
-0.34950417 0.02564905 -0.10462328 4283985784
-0.34958485 0.027679043 -0.10480553 4288517243
-0.39407086 -0.075896248 -0.1785302 4285294423
-0.39165732 -0.073256858 -0.1746569 4284637782
-0.38928485 -0.070659198 -0.17084965 4285621587
-0.38695246 -0.068102248 -0.16710675 4287125317
-0.38465917 -0.06558498 -0.1634267 4287583041
-0.38182443 -0.063043654 -0.15886283 4287651916
-0.38191095 -0.060838651 -0.15906182 4287848782
-0.38027203 -0.058471121 -0.15644678 4288109385
-0.37865338 -0.056129601 -0.15386403 4288437578
-0.37817529 -0.053899433 -0.15314153 4287914575
-0.37769929 -0.051675372 -0.1524222 4286014295
-0.37666804 -0.049423505 -0.15079662 4284046682
-0.3761982 -0.047215987 -0.15008692 4282800221
-0.37573037 -0.045014404 -0.1493804 4282209888
-0.37471563 -0.042798474 -0.14778085 4282142559
-0.37262619 -0.040565941 -0.1444263 4282208868
-0.36951208 -0.038343631 -0.13939783 4282668910
-0.36544532 -0.03615696 -0.13281223 4285353572
-0.35856387 -0.034019511 -0.12162779 4290268750
-0.35529742 -0.031979624 -0.11634564 4292825160
-0.35303846 -0.029979302 -0.11270817 4293090645
-0.35127684 -0.028004179 -0.10988236 4292902508
-0.34999204 -0.026042884 -0.10783505 4292566613
-0.34961888 -0.02406875 -0.10727716 4293090634
-0.34879905 -0.022118323 -0.1059891 4293418849
-0.34843028 -0.020156523 -0.10543808 4293225070
-0.34850812 -0.018172804 -0.10561709 4293157983
-0.34858605 -0.016186308 -0.10579635 4293554551
-0.34821865 -0.014230525 -0.10524739 4292633201
-0.34874222 -0.012205034 -0.10615566 4292822584
-0.34882048 -0.010210251 -0.10633567 4293015598
-0.34800875 -0.0083010625 -0.10505968 4293473323
-0.34853128 -0.0062602572 -0.10596669 4293670184
-0.34860975 -0.0042607244 -0.10614712 4293734698
-0.34868827 -0.0022584463 -0.10632784 4293669929
-0.34876695 -0.00025336363 -0.10650877 4293735721
-0.34840074 0.0016923874 -0.10596156 4293669929
-0.34847951 0.0036994587 -0.10614268 4293669417
-0.3481147 0.0056402199 -0.1055976 4293801515
-0.3481935 0.0076492717 -0.1057789 4293866539
-0.34783006 0.0095850574 -0.10523594 4293409849
-0.34746811 0.011516701 -0.10469521 4293355611
-0.34754696 0.013527 -0.10487664 4293349453
-0.34762594 0.015540111 -0.10505832 4292492873
-0.34770501 0.017556034 -0.10524024 4288314231
-0.34734434 0.019481253 -0.10470147 4283659135
-0.34742349 0.021499254 -0.10488358 4282018182
-0.34750277 0.023520088 -0.10506594 4281885568
-0.34758216 0.025543764 -0.10524859 4282278781
-0.34766167 0.027570305 -0.10543146 4284708220
-0.34774128 0.029599695 -0.1056146 4289174655
-0.39360297 -0.076093085 -0.18217266 4286082904
-0.39118189 -0.073440462 -0.17825244 4284964436
-0.38819182 -0.070748962 -0.17339514 4285357905
-0.38526472 -0.068111062 -0.16864033 4286667080
-0.3829844 -0.065593563 -0.16494852 4287650115
-0.38307053 -0.063368417 -0.16515037 4287981385
-0.3802512 -0.06084682 -0.16057001 4287981388
-0.37805435 -0.058426313 -0.15701324 4287913802
-0.37645137 -0.056089692 -0.15443332 4288044363
-0.37597764 -0.053863995 -0.15371214 4288438351
-0.37495214 -0.05160607 -0.15208212 4287588183
-0.37393495 -0.049363382 -0.1504654 4285293147
-0.37347141 -0.047164734 -0.14976032 4283389784
-0.37300983 -0.044971924 -0.14905828 4282340959
-0.37200895 -0.042764857 -0.14746748 4282077793
-0.36994815 -0.040541306 -0.14412969 4282077282
-0.36739731 -0.038338818 -0.13998342 4282208873
-0.36337006 -0.036156282 -0.13340251 4283192423
-0.3570357 -0.034025177 -0.12301664 4286604130
-0.35331994 -0.031986419 -0.11694542 4291257426
-0.35154209 -0.029984528 -0.11406817 4293150788
-0.34933722 -0.028017879 -0.11048598 4293225818
-0.34806433 -0.026059916 -0.10844 4292831581
-0.347249 -0.024104841 -0.10714842 4293018428
-0.34643972 -0.022161171 -0.10586639 4293611078
-0.34607553 -0.020206241 -0.10531852 4293827950
-0.34615204 -0.018229488 -0.10549784 4293428585
-0.34622869 -0.016250022 -0.10567742 4293683549
-0.34630543 -0.014267785 -0.10585722 4293034087
-0.34638229 -0.012282811 -0.10603727 4293360734
-0.34558105 -0.01037564 -0.10476761 4293021501
-0.34565783 -0.0083922688 -0.10494754 4293212206
-0.34617332 -0.0063587856 -0.10585205 4293604647
-0.34625044 -0.0043663173 -0.10603279 4293734953
-0.34632769 -0.0023710886 -0.10621379 4293734953
-0.34640503 -0.00037305558 -0.10639504 4293866538
-0.34604335 0.0015660666 -0.10585091 4293801002
-0.3461208 0.0035660882 -0.10603233 4293801002
-0.34576055 0.0055002593 -0.10549036 4293800490
-0.34583804 0.0075022914 -0.10567197 4293867050
-0.34504414 0.0093562454 -0.10441292 4293474868
-0.34512156 0.011356711 -0.10459439 4293025621
-0.34476545 0.01327782 -0.10405891 4293290853
-0.344843 0.01528035 -0.10424057 4292697435
-0.34448817 0.017196637 -0.10370713 4290156916
-0.34456578 0.019201221 -0.10388897 4286355844
-0.3446435 0.021208603 -0.10407107 4282937223
-0.34472132 0.023218803 -0.10425343 4281820036
-0.34523225 0.025335163 -0.10515267 4281885309
-0.3448773 0.027247716 -0.10461891 4282475136
-0.34495544 0.029266421 -0.10480203 4285626493
-0.39007968 -0.073537543 -0.18084598 4285425498
-0.38709381 -0.070839092 -0.17595175 4285093971
-0.38417101 -0.068194531 -0.17116101 4286210641
-0.38189393 -0.065670885 -0.16744144 4287260236
-0.38197911 -0.063440941 -0.16764478 4288181076
-0.37973934 -0.060971651 -0.16398577 4288379480
-0.37753651 -0.058540013 -0.16038728 4287982929
-0.37536985 -0.056145106 -0.15684783 4287914061
-0.37434131 -0.053871538 -0.15519913 4288372302
-0.37387189 -0.051651701 -0.15447921 4288373588
-0.3728559 -0.049404163 -0.15285061 4286800472
-0.37130612 -0.047142725 -0.15033413 4284569940
-0.37084872 -0.044954214 -0.14963339 4283061594
-0.36985731 -0.042751446 -0.14804445 4282340193
-0.36834422 -0.040547714 -0.14558737 4282339678
-0.36632755 -0.038356069 -0.14229199 4282338653
-0.36281368 -0.036175568 -0.13650483 4282404707
-0.35646796 -0.03403572 -0.12600417 4283979878
-0.35227865 -0.031990457 -0.11908928 4288306778
-0.34958851 -0.029994836 -0.11466774 4292298312
-0.34740442 -0.028031496 -0.11108755 4293218882
-0.34570089 -0.026088919 -0.10830632 4292898133
-0.34533548 -0.024125133 -0.1077525 4293026640
-0.34453353 -0.022184761 -0.10647155 4293155138
-0.34373742 -0.020255566 -0.10520002 4293755999
-0.34381267 -0.018285783 -0.10537963 4293627758
-0.34388801 -0.016313272 -0.10555948 4293618518
-0.34396347 -0.014338 -0.10573958 4293485901
-0.34403902 -0.012360001 -0.10591993 4293556065
-0.34324807 -0.010459221 -0.10465624 4293483334
-0.34332359 -0.008482825 -0.10483643 4292954946
-0.34383199 -0.0064566345 -0.10573844 4293670183
-0.34390783 -0.0044711493 -0.10591948 4293800744
-0.3439838 -0.0024829186 -0.10610076 4293800230
-0.34405985 -0.0004918981 -0.10628231 4293866282
-0.34370267 0.001440662 -0.10574126 4293800234
-0.34377882 0.0034336783 -0.10592299 4293865769
-0.34342295 0.0053613284 -0.10538407 4293734953
-0.34349915 0.0073563629 -0.10556597 4293735978
-0.34271541 0.0092043942 -0.10431277 4293735468
-0.34279156 0.0111979 -0.10449456 4293475639
-0.3424398 0.013112607 -0.10396203 4293419350
-0.34251601 0.015108147 -0.104144 4293164389
-0.34259236 0.017106505 -0.1043262 4291788894
-0.3426688 0.019107653 -0.10450868 4289634683
-0.34274536 0.02111165 -0.1046914 4285695625
-0.34282202 0.023118438 -0.10487439 4282607753
-0.34289879 0.025128037 -0.10505762 4281885058
-0.34297565 0.027140493 -0.10524112 4281950596
-0.34262508 0.029046064 -0.10471033 4282934657
-0.34270203 0.031060606 -0.10489401 4286872955
-0.38835377 -0.073546901 -0.18241422 4286217059
-0.38599086 -0.070929624 -0.17851949 4285095507
-0.38307241 -0.06827835 -0.17369257 4285818448
-0.38315722 -0.066027723 -0.17389883 4286538317
-0.38088283 -0.063513763 -0.1701498 4287652686
-0.3780722 -0.060979851 -0.16550069 4288379484
-0.375882 -0.058547985 -0.16189076 4288446815
-0.37372768 -0.056152821 -0.15834011 4288245590
-0.37215546 -0.053836197 -0.15576492 4288241998
-0.37060234 -0.051544629 -0.15322113 4288568649
-0.369068 -0.049277667 -0.15070823 4287979084
-0.36808237 -0.04706341 -0.14911546 4285881937
-0.36763307 -0.044887967 -0.14842238 4283914071
-0.36665925 -0.042698406 -0.14684872 4282996317
-0.36517292 -0.040507887 -0.14441428 4282603360
-0.36370417 -0.038340215 -0.14200869 4282273887
-0.36174616 -0.036188237 -0.13878089 4282208872
-0.35493356 -0.034041408 -0.12739871 4282602604
-0.35123324 -0.031994507 -0.12124135 4285092190
-0.34809443 -0.030000048 -0.11602568 4290203224
-0.34592298 -0.028036533 -0.11243401 4292755776
-0.34422916 -0.026093764 -0.10964397 4293287238
-0.34342861 -0.024145346 -0.10835458 4293363295
-0.34263396 -0.022208238 -0.1070747 4292897356
-0.34184512 -0.020282287 -0.10580426 4293022795
-0.34191921 -0.018315881 -0.10598448 4293556066
-0.34156391 -0.016376071 -0.10544265 4293756519
-0.34163809 -0.014407712 -0.10562305 4293743429
-0.34171236 -0.012436633 -0.1058037 4293475650
-0.34135836 -0.010502601 -0.10526389 4293815375
-0.34143272 -0.0085295523 -0.10544471 4293027423
-0.34193584 -0.0065069469 -0.10634714 4293541422
-0.34201053 -0.004524868 -0.1065288 4293670441
-0.34165639 -0.0025939485 -0.10598871 4293800484
-0.34173116 -0.00060988893 -0.10617054 4293669673
-0.34180602 0.0013769532 -0.10635264 4293603369
-0.34145325 0.0033022121 -0.10581464 4293668903
-0.3411018 0.0052233902 -0.10527878 4293604394
-0.34117672 0.0072114491 -0.10546099 4293669926
-0.34040299 0.0090536224 -0.10421354 4293669931
-0.34047782 0.011040213 -0.10439561 4293670447
-0.34013039 0.012948577 -0.10386611 4293608248
-0.34020534 0.014937208 -0.10404835 4293293148
-0.34028038 0.016928643 -0.10423086 4292833892
-0.34035555 0.01892286 -0.10441364 4291787628
-0.3404308 0.020919882 -0.10459667 4289302920
-0.34050617 0.022919744 -0.10477994 4285560971
-0.34058163 0.024922391 -0.10496349 4282737801
-0.3406572 0.026927872 -0.10514728 4282015878
-0.3403109 0.02882723 -0.10461943 4281885568
-0.34038657 0.030834809 -0.10480343 4283328122
-0.34046233 0.032845244 -0.10498769 4287463031
-0.38427827 -0.070938729 -0.18007563 4286083671
-0.38137677 -0.068287194 -0.17523333 4285555541
-0.38205275 -0.066106983 -0.17644286 4286341457
-0.37978169 -0.063586891 -0.17266567 4287257419
-0.37697554 -0.061046787 -0.16798171 4288045905
-0.37478873 -0.058609195 -0.164345 4288446048
-0.37263784 -0.056208473 -0.16076797 4288380517
-0.36997819 -0.053800993 -0.15632862 4287981651
-0.36790496 -0.0514764 -0.15288118 4288175430
-0.36692089 -0.049251698 -0.15127733 4288701003
-0.36489683 -0.046985012 -0.14791156 4287457366
-0.36393648 -0.04479862 -0.14634693 4284899421
-0.36298379 -0.042626511 -0.14479482 4283389530
-0.36152956 -0.040453389 -0.14239246 4282537820
-0.36009243 -0.038302742 -0.14001839 4282274143
-0.35817641 -0.036167502 -0.13683189 4282339937
-0.35292348 -0.034044612 -0.12798746 4282274404
-0.34925896 -0.03200135 -0.12183375 4283126626
-0.34660015 -0.030005258 -0.1173838 4286076000
-0.34399953 -0.028050087 -0.11303138 4290658124
-0.34232166 -0.02611061 -0.11024302 4293084479
-0.34152845 -0.024165519 -0.10895471 4293555542
-0.34074101 -0.022231625 -0.10767588 4293164636
-0.33995932 -0.020308917 -0.10640651 4292566347
-0.33960703 -0.018371571 -0.10586557 4293418314
-0.33967996 -0.016409315 -0.10604632 4293890913
-0.339753 -0.014444348 -0.10622732 4293681227
-0.33940205 -0.012512747 -0.10568848 4293806142
-0.33947515 -0.010545795 -0.10586966 4293819732
-0.33954838 -0.0085761379 -0.1060511 4293426791
-0.3400462 -0.0065570804 -0.10695387 4293285701
-0.34011975 -0.004578379 -0.10713614 4293343279
-0.33976865 -0.0026506588 -0.10659693 4293735462
-0.33941886 -0.0007270347 -0.10605984 4293604138
-0.33949247 0.0012528836 -0.10624222 4293669160
-0.33914399 0.0031716523 -0.10570724 4293669157
-0.33879688 0.005086428 -0.10517444 4293735466
-0.33887053 0.0070675928 -0.10535693 4293800739
-0.3381066 0.0089038881 -0.10411515 4293669929
-0.33818021 0.010883606 -0.10429751 4293734956
-0.33825392 0.012866099 -0.10448013 4293670446
-0.33832771 0.014851389 -0.10466301 4293284164
-0.33798447 0.016751999 -0.10413638 4293162092
-0.33805832 0.018739359 -0.10431944 4292764262
-0.33813232 0.020729493 -0.10450277 4291719799
-0.33820638 0.022722427 -0.10468635 4289301645
-0.33828059 0.024718186 -0.10487019 4285100938
-0.33835489 0.02671675 -0.10505428 4282409862
-0.33801284 0.028609946 -0.10452946 4281753724
-0.3380872 0.03061064 -0.10471376 4281885305
-0.33816168 0.032614116 -0.1048983 4283656309
-0.33782089 0.034502074 -0.10437544 4287858039
-0.38324991 -0.06875293 -0.18286899 4286412381
-0.3809433 -0.066186555 -0.17899792 4286146388
-0.37925962 -0.063725568 -0.17618974 4286735444
-0.37644601 -0.06117326 -0.17145056 4286996560
-0.37369072 -0.058670659 -0.16680957 4287393111
-0.37209699 -0.056312665 -0.16415226 4287787099
-0.36943084 -0.053894196 -0.15966143 4287849294
-0.36735263 -0.051559307 -0.15617429 4288044613
-0.36530778 -0.049258836 -0.15274324 4288568905
-0.36329547 -0.046991922 -0.14936684 4288505686
-0.36182666 -0.044781525 -0.14691897 4286735196
-0.35936549 -0.042555705 -0.14277323 4284437847
-0.35794258 -0.040399741 -0.14040227 4283257686
-0.35653627 -0.038265843 -0.13805906 4282470749
-0.35466108 -0.036147114 -0.13491297 4282340192
-0.35092077 -0.034047805 -0.12857418 4282339936
-0.34729183 -0.03200813 -0.12242413 4282274918
-0.34465852 -0.030015506 -0.11797684 4283257699
-0.3420828 -0.028063621 -0.1136268 4286859092
-0.34042081 -0.026127392 -0.11084007 4291446599
-0.33920801 -0.024200927 -0.10882189 4293221448
-0.3384307 -0.022273712 -0.1075491 4293422423
-0.33765906 -0.020357521 -0.10628561 4292699992
-0.33773077 -0.018401355 -0.10646673 4292958030
-0.33780256 -0.016442446 -0.10664809 4293751109
-0.33787447 -0.014480826 -0.1068297 4293545032
-0.33710793 -0.012588293 -0.10557422 4293946964
-0.33717975 -0.010628209 -0.1057557 4293549380
-0.33725172 -0.008665394 -0.10593742 4293625947
-0.33774269 -0.0066535231 -0.10683777 4293428329
-0.33781496 -0.0046817153 -0.10702033 4293150530
-0.33746818 -0.0027605081 -0.10648412 4293343021
-0.33712274 -0.00084335275 -0.10595012 4293668904
-0.33719504 0.0011296715 -0.1061328 4293800745
-0.33726746 0.0031054784 -0.10631573 4293800228
-0.33692327 0.0050171111 -0.10578368 4293800488
-0.33658037 0.0069247517 -0.10525377 4293865763
-0.3362388 0.0088284081 -0.10472601 4293800999
-0.33631125 0.010804786 -0.10490898 4293669163
-0.33597097 0.012703798 -0.10438331 4293604652
-0.33604351 0.014682231 -0.10456648 4293409333
-0.33611614 0.016663447 -0.10474991 4293416018
-0.3357771 0.018557131 -0.10422614 4293226084
-0.33584979 0.020540446 -0.10440978 4292634467
-0.3359226 0.022526529 -0.10459366 4291464319
-0.3359955 0.024515424 -0.1047778 4288122501
-0.33606851 0.026507109 -0.1049622 4284051846
-0.33573064 0.028394183 -0.10444025 4282082432
-0.33580372 0.030388005 -0.10462486 4281885051
-0.33587694 0.032384638 -0.10480971 4282147966
-0.33472478 0.034032673 -0.10288706 4284051835
-0.3347978 0.036024474 -0.10307147 4288385659
-0.38042149 -0.066337958 -0.18258573 4286542169
-0.37873286 -0.063865431 -0.17974393 4286473043
-0.37648752 -0.061360795 -0.17594142 4286999640
-0.37427971 -0.05889485 -0.17220253 4287197787
-0.372668 -0.056515779 -0.16949083 4287717964
-0.36997303 -0.054075263 -0.16490956 4288239682
-0.36787236 -0.051719744 -0.16135238 4288240452
-0.36580572 -0.049399249 -0.1578529 4288372295
-0.36324951 -0.047084238 -0.15350746 4288699720
-0.36177114 -0.044859972 -0.15102138 4288043336
-0.35879025 -0.04260074 -0.14594053 4286010957
-0.35637194 -0.040406033 -0.14182968 4284044628
-0.35497367 -0.038271934 -0.13947921 4282929756
-0.35310939 -0.03615303 -0.13632318 4282601824
-0.34939146 -0.034053467 -0.1299641 4282536283
-0.34623837 -0.032012202 -0.12457905 4282338908
-0.34361085 -0.030015705 -0.12010067 4282469983
-0.34104088 -0.028060138 -0.11572046 4283912804
-0.3389537 -0.026132217 -0.11217352 4288499290
-0.33774781 -0.024205573 -0.11014909 4292556596
-0.33697474 -0.022278212 -0.10887246 4293608249
-0.33579034 -0.02038387 -0.10688419 4293555799
-0.33586091 -0.01843103 -0.1070659 4292829791
-0.33551589 -0.016504334 -0.10652878 4293346357
-0.33600235 -0.014517173 -0.10743011 4293676357
-0.33482981 -0.01266333 -0.10546103 4293957740
-0.33490041 -0.010710032 -0.10564279 4293355350
-0.3349711 -0.0087540075 -0.10582481 4293291860
-0.33504191 -0.0067952671 -0.10600706 4293698415
-0.33511278 -0.0048337816 -0.10618959 4293750101
-0.33518377 -0.002869566 -0.10637236 4293280049
-0.33484253 -0.00095887779 -0.10584133 4293604392
-0.33450264 0.00094784796 -0.10531243 4293800744
-0.33457369 0.0029133549 -0.10549533 4293800230
-0.33464482 0.0048815995 -0.10567848 4293800230
-0.33430618 0.006782894 -0.1051516 4293799972
-0.33396879 0.0086802645 -0.1046268 4293734949
-0.33403996 0.010649844 -0.10481008 4293668904
-0.33370385 0.012542607 -0.10428728 4293735722
-0.3337751 0.014514273 -0.10447076 4293735979
-0.33384645 0.016488669 -0.10465448 4293801267
-0.33351159 0.018376207 -0.10413372 4293747790
-0.33358303 0.020352703 -0.10431764 4293229157
-0.33365455 0.022332003 -0.10450182 4292376925
-0.3337262 0.024314087 -0.10468625 4290616183
-0.33379793 0.026298951 -0.10487095 4287073414
-0.33346421 0.02817994 -0.10435193 4283463049
-0.333536 0.030166935 -0.10453684 4282082693
-0.33360794 0.032156743 -0.10472199 4281952647
-0.33247063 0.033800378 -0.10280741 4282149515
-0.33254239 0.035785407 -0.10299211 4284709756
-0.33301619 0.037896097 -0.10387529 4289043577
-0.37761468 -0.063940078 -0.18230756 4286409560
-0.37594986 -0.061489925 -0.17948085 4286474064
-0.3737362 -0.059012428 -0.1756978 4286540882
-0.37211996 -0.05662258 -0.17295404 4287258700
-0.36941847 -0.054170713 -0.16831931 4287977540
-0.36677209 -0.051765822 -0.16377929 4288305731
-0.36470902 -0.049440093 -0.16025417 4288306245
-0.36163807 -0.047091193 -0.15497188 4288437320
-0.35965675 -0.044842687 -0.15158689 4288633160
-0.35620776 -0.042568672 -0.14564297 4287322441
-0.35333636 -0.040367864 -0.14070411 4284963410
-0.35196254 -0.038246144 -0.13837463 4283585879
-0.3501308 -0.036139343 -0.13524605 4282863446
-0.3473987 -0.03405663 -0.13054639 4282404188
-0.34472772 -0.032017626 -0.12595202 4282207582
-0.34211588 -0.030020941 -0.12145942 4282143329
-0.33999491 -0.028056636 -0.11782197 4282406250
-0.33748639 -0.026137037 -0.11350714 4284959078
-0.33628741 -0.024210243 -0.11147647 4290198858
-0.33510134 -0.022301348 -0.10946782 4293018688
-0.33392802 -0.020410124 -0.10748084 4293615951
-0.33358598 -0.018485909 -0.10694465 4292829023
-0.33365542 -0.016537143 -0.10712689 4292959815
-0.33290571 -0.014649788 -0.1058786 4293349702
-0.33256754 -0.012737837 -0.1053488 4293827179
-0.33304456 -0.010752503 -0.10624307 4293429104
-0.33270633 -0.0088420026 -0.10571314 4293350488
-0.33277586 -0.0068900227 -0.10589569 4293762658
-0.33284551 -0.0049352981 -0.1060785 4294342490
-0.33291525 -0.0029778946 -0.10626156 4293680183
-0.33257827 -0.0010735529 -0.10573356 4293412141
-0.33224252 0.00082682015 -0.10520765 4293735720
-0.33231232 0.0027855367 -0.10539082 4293734179
-0.3323822 0.004747021 -0.10557426 4293800998
-0.33204764 0.0066420301 -0.10505031 4293800743
-0.33171442 0.0085331509 -0.10452849 4293669413
-0.33178437 0.010495986 -0.10471205 4293669670
-0.33145234 0.012382583 -0.10419219 4293670441
-0.33152235 0.01434748 -0.10437595 4293801256
-0.33159247 0.016315145 -0.10455996 4293866283
-0.33126166 0.018196516 -0.10404208 4293671991
-0.33133185 0.020166287 -0.10422629 4293684056
-0.33140212 0.022138834 -0.10441078 4293294941
-0.33147249 0.024114149 -0.1045955 4291921752
-0.33154297 0.026092231 -0.10478049 4291143804
-0.33121333 0.027967189 -0.10426445 4287342487
-0.3312839 0.029947415 -0.10444963 4283463052
-0.33055776 0.031705894 -0.10323843 4282148481
-0.33062828 0.033684839 -0.10342349 4281821579
-0.33069888 0.03566657 -0.10360884 4282280330
-0.3307696 0.037651114 -0.10379443 4285562748
-0.37707698 -0.064081751 -0.18591104 4286873444
-0.3754074 -0.061620139 -0.18305054 4286343511
-0.37318781 -0.059130982 -0.17922266 4286668364
-0.37156716 -0.056730237 -0.17644642 4287519305
-0.36885908 -0.054266986 -0.17175755 4288042566
-0.36620641 -0.051851094 -0.16716482 4288239685
