# .PCD v0.7 - Point Cloud Data file format
VERSION 0.7
FIELDS x y z rgba
SIZE 4 4 4 4
TYPE F F F U
COUNT 1 1 1 1
WIDTH 1015
HEIGHT 1
VIEWPOINT 0 0 0 1 0 0 0
POINTS 1015
DATA ascii
-0.34701487 0.011556305 -0.13541412 4283736994
-0.34662881 0.01357614 -0.13479941 4284125327
-0.34578758 0.015501024 -0.13338016 4284253567
-0.3449527 0.017414492 -0.13197178 4284250490
-0.34412414 0.019316707 -0.13057409 4283984494
-0.34285641 0.021108262 -0.12839964 4284769631
-0.34248561 0.023087868 -0.12781049 4286410074
-0.34167552 0.024957022 -0.12644431 4286613091
-0.3421894 0.027143847 -0.12741938 4285359960
-0.34226257 0.029227572 -0.12761523 4286665546
-0.34277862 0.031432167 -0.12859476 4288305225
-0.34109008 0.033041064 -0.12567356 4288895563
-0.34116316 0.035122152 -0.12586915 4289419848
-0.34123635 0.037206143 -0.12606502 4290141510
-0.3408727 0.039161693 -0.12548767 4290601284
-0.34094596 0.041247793 -0.12568375 4291325507
-0.33971736 0.042922668 -0.12357444 4292446277
-0.33807585 0.044443011 -0.12073316 4293371203
-0.33730015 0.046227016 -0.11942478 4293702980
-0.33695063 0.048145905 -0.11887113 4294034767
-0.33702308 0.050209172 -0.11906505 4294165073
-0.33667487 0.052123308 -0.11851354 4293567563
-0.33674741 0.054188803 -0.11870767 4292049743
-0.33682004 0.056257192 -0.11890206 4291065183
-0.3678852 -0.018437944 -0.17568068 4285494882
-0.36632785 -0.016276341 -0.17298371 4283648573
-0.36478963 -0.014138049 -0.17031993 4285092413
-0.36221623 -0.012106175 -0.1658127 4285027907
-0.36020994 -0.010066541 -0.16231376 4286016590
-0.35772794 -0.008105102 -0.15796664 4288381282
-0.35381287 -0.0063344347 -0.15106592 4288701272
-0.35242245 -0.0043426803 -0.14866008 4288435021
-0.35056904 -0.0024293894 -0.1454287 4288237386
-0.34921604 -0.00048078431 -0.14308795 4288302418
-0.34834707 0.0015136306 -0.14160915 4287062115
-0.3470197 0.0034272373 -0.1393128 4284443769
-0.3461675 0.0053939871 -0.13786279 4284382845
-0.34578019 0.0074243569 -0.13724126 4283596674
-0.34493759 0.0093708653 -0.13580774 4283662715
-0.3441014 0.01130576 -0.13438517 4283858810
-0.34327155 0.013229163 -0.13297348 4284374376
-0.34244791 0.015141204 -0.13157253 4285615689
-0.34118819 0.016950209 -0.12939298 4286664523
-0.34038004 0.0188368 -0.12801865 4285687641
-0.33957785 0.020712458 -0.12665462 4287138666
-0.33878168 0.02257734 -0.12530084 4286345064
-0.33842143 0.024535684 -0.12472505 4287650124
-0.33849278 0.02659766 -0.12491981 4288632906
-0.33856422 0.028662568 -0.12511486 4289156425
-0.33565518 0.029931331 -0.11998586 4289943110
-0.33614725 0.032092568 -0.12093174 4290469954
-0.33621821 0.034143824 -0.12112549 4291522624
-0.33628929 0.036197957 -0.12131951 4292843331
-0.33593875 0.038127303 -0.12076002 4293505345
-0.33558956 0.040052634 -0.12020279 4293901118
-0.33524173 0.041974001 -0.1196479 4294163515
-0.33447915 0.043754518 -0.11835111 4294491192
-0.33413541 0.045664784 -0.11780303 4294622521
-0.33379295 0.04757113 -0.11725712 4294622779
-0.33345181 0.049473636 -0.11671341 4294622266
-0.33311197 0.051372286 -0.11617198 4294358590
-0.33318281 0.053419594 -0.11636535 4293172550
-0.33325374 0.055469822 -0.11655901 4291458641
-0.33414835 0.057844184 -0.11822747 4291197797
-0.36566105 -0.018472353 -0.176231 4285755479
-0.36411935 -0.016314818 -0.17353721 4284833862
-0.36206779 -0.014218108 -0.16992635 4284567103
-0.36004934 -0.012152081 -0.16637389 4283385656
-0.35806316 -0.010115978 -0.16287839 4283648317
-0.35610861 -0.0081090871 -0.15943862 4287262290
-0.35369018 -0.0061829165 -0.15516369 4288575331
-0.3503539 -0.0044011585 -0.14923677 4288632396
-0.34851885 -0.0024909177 -0.14600821 4288695620
-0.34671184 -0.00060686388 -0.14282908 4288955971
-0.34539258 0.0013160066 -0.14052653 4289088070
-0.34408835 0.0032201104 -0.13825031 4288761163
-0.34370449 0.0052479655 -0.13762996 4287254602
-0.34287009 0.0071962308 -0.13619836 4285089605
-0.34159482 0.0090548871 -0.13397254 4285022533
-0.34077615 0.010976753 -0.13256833 4286202178
-0.33996367 0.012887313 -0.1311748 4287647562
-0.33915725 0.014786696 -0.12979178 4287522906
-0.33792377 0.016584553 -0.12763897 4287723621
-0.33713236 0.018458867 -0.12628199 4286149994
-0.33507493 0.020034602 -0.12264303 4287913809
-0.33472347 0.021977117 -0.1220779 4288698188
-0.33395523 0.02381363 -0.12076133 4289352777
-0.33402464 0.025849834 -0.12095461 4290141507
-0.33409414 0.027888868 -0.12114815 4291390783
-0.33250463 0.029483194 -0.11834957 4292711745
-0.3329865 0.031628326 -0.11928675 4293374784
-0.33305594 0.03366505 -0.11948009 4293770557
-0.33271253 0.035582434 -0.11892854 4294229046
-0.332782 0.037621275 -0.11912209 4294491444
-0.33243993 0.039533932 -0.11857277 4294557238
-0.33209914 0.041442696 -0.11802565 4294557496
-0.33094597 0.043078203 -0.11601145 4294754362
-0.33061039 0.044972938 -0.11547327 4294819897
-0.33027616 0.046863873 -0.11493724 4294688825
-0.32994318 0.048751041 -0.11440343 4294623033
-0.32961145 0.050634414 -0.11387172 4294490937
-0.32968059 0.052663907 -0.11406438 4293964350
-0.32974988 0.054696277 -0.11425729 4292515401
-0.32981926 0.056731556 -0.11445049 4291066966
-0.33029011 0.058930837 -0.11536976 4291335277
-0.36398393 -0.018477347 -0.1777554 4285361492
-0.36191967 -0.01635311 -0.17408875 4283516990
-0.35936767 -0.014297476 -0.16953614 4282989878
-0.3573778 -0.012238919 -0.16600209 4283187515
-0.35592473 -0.010165215 -0.16344112 4282991419
-0.35398984 -0.0081617674 -0.16000475 4285096265
-0.35159573 -0.0062386459 -0.15573363 4288182873
-0.34781834 -0.0045139208 -0.1489494 4288894789
-0.34600863 -0.0026099633 -0.14573641 4288631369
-0.34422648 -0.00073195418 -0.14257243 4288629318
-0.34292519 0.0011845286 -0.14028102 4289087304
-0.34118968 0.0030152835 -0.13719992 4289415496
-0.34036657 0.0049618478 -0.13577598 4288957000
-0.33954972 0.006896852 -0.13436291 4288039238
-0.33873901 0.0088204034 -0.13296056 4287646532
-0.33793437 0.010732655 -0.13156883 4287843145
-0.33670411 0.012550489 -0.12940271 4288574300
-0.33591446 0.014437395 -0.1280373 4287790958
-0.3347066 0.016224211 -0.12591067 4288306262
-0.33309385 0.017902933 -0.12304672 4288762444
-0.33191654 0.019654321 -0.12097423 4289483846
-0.33116138 0.02148661 -0.11966937 4290666561
-0.33041167 0.023308661 -0.11837406 4292381253
-0.33129725 0.025534572 -0.12005552 4293242179
-0.32933101 0.027028292 -0.11654474 4293770046
-0.32899591 0.028932083 -0.11600344 4294294584
-0.32946628 0.031057369 -0.11692908 4294426423
-0.32953402 0.033076197 -0.11712168 4294623286
-0.32919884 0.034977801 -0.11658016 4294754359
-0.32886496 0.036875546 -0.11604082 4294820158
-0.32893276 0.03889579 -0.11623353 4294427721
-0.32860014 0.040788993 -0.11569632 4293641554
-0.32787094 0.042545829 -0.11443591 4292986201
-0.32714692 0.044293247 -0.11318459 4292919895
-0.32682058 0.046168994 -0.11265819 4293246545
-0.32649553 0.048041016 -0.11213394 4293967689
-0.32617167 0.049909413 -0.1116118 4294426688
-0.3262392 0.051921409 -0.11180373 4294359866
-0.32669848 0.054087467 -0.11271071 4293634878
-0.32715946 0.056264024 -0.11362118 4292183369
-0.32762218 0.058451112 -0.11453514 4291130718
-0.35972863 -0.016391233 -0.17463824 4284305474
-0.35720274 -0.014339221 -0.17009035 4282662455
-0.35523307 -0.012284287 -0.16656004 4282662445
-0.35379454 -0.010214254 -0.16400181 4282927423
-0.35138705 -0.0082624694 -0.15966691 4286211150
-0.34950924 -0.0062941569 -0.1563016 4287785293
-0.34577012 -0.0045717349 -0.14952269 4288041283
-0.3439784 -0.0026708022 -0.14631243 4288436046
-0.3422139 -0.00079575356 -0.14315106 4288629063
-0.34047607 0.001054014 -0.14003755 4288692802
-0.33876422 0.0028790659 -0.13697076 4289152582
-0.33795217 0.0048190951 -0.13555396 4289612101
-0.33714622 0.006747589 -0.13414791 4289088843
-0.33591452 0.0085885404 -0.13195997 4288695881
-0.33469647 0.010412105 -0.12979637 4288500301
-0.33391443 0.012300635 -0.12843268 4288762443
-0.33313823 0.014178289 -0.1270792 4288827208
-0.33153567 0.015869075 -0.12420751 4289087814
-0.3303656 0.017628724 -0.12212947 4289809479
-0.3292082 0.019372351 -0.12007397 4290731330
-0.32846567 0.02119601 -0.11878022 4292778305
-0.32812959 0.023108564 -0.11823317 4294095672
-0.32779485 0.025017185 -0.11768837 4294555957
-0.32626995 0.026606761 -0.11495519 4294818099
-0.32594156 0.028498035 -0.11442146 4294884147
-0.32640219 0.030607775 -0.11533877 4294819635
-0.32568043 0.032383233 -0.11408135 4294820407
-0.32574657 0.0343838 -0.11427312 4294297161
-0.32542065 0.036266126 -0.11374356 4293444452
-0.32509592 0.0381447 -0.11321606 4293249921
-0.32516211 0.040146712 -0.11340796 4293121170
-0.32483861 0.042020883 -0.11288255 4292794009
-0.32412916 0.043758124 -0.11164627 4292728472
-0.3241953 0.045758203 -0.111838 4292989072
-0.32349071 0.047482111 -0.11061017 4293183096
-0.32317325 0.04933871 -0.11009522 4293049691
-0.32323933 0.051336896 -0.11028675 4293507911
-0.32330543 0.05333795 -0.11047859 4293966401
-0.32375553 0.055494502 -0.11137825 4293238851
-0.32420725 0.057661384 -0.11228128 4291590481
-0.3254382 0.060161833 -0.11462157 4291133543
-0.35702771 -0.016462315 -0.17422676 4285486918
-0.35453796 -0.014417659 -0.16970231 4283649084
-0.35309657 -0.012329462 -0.16711585 4282531115
-0.35167253 -0.010263104 -0.1645605 4282858797
-0.34977654 -0.0082664276 -0.16113088 4283907121
-0.3479102 -0.0062979483 -0.15775515 4284629303
-0.34607288 -0.0043570055 -0.15443201 4286988351
-0.34241381 -0.0026741752 -0.14773472 4288435530
-0.34066007 -0.00079894089 -0.14456359 4288564556
-0.33893284 0.0010510134 -0.14144042 4289415239
-0.33679324 0.0028099378 -0.13755234 4290332742
-0.33598894 0.0047467728 -0.13613695 4290203975
-0.33476022 0.0065994239 -0.13393471 4288891211
-0.33312085 0.0083591938 -0.13097061 4288630598
-0.33234343 0.010252503 -0.12960333 4288236868
-0.33115494 0.012053473 -0.12747343 4288040520
-0.32997939 0.013837766 -0.12536685 4288564294
-0.32840994 0.01551903 -0.12252903 4289152834
-0.32726395 0.017268164 -0.12047574 4289808964
-0.32613021 0.019001495 -0.11844458 4291321418
-0.32579833 0.02090851 -0.11790073 4293042259
-0.32546774 0.022811614 -0.11735907 4294423611
-0.32357454 0.024308354 -0.11391658 4294752308
-0.32325146 0.026191102 -0.11338809 4294884146
-0.32331604 0.028176382 -0.11357935 4294950705
-0.32338074 0.030164467 -0.11377084 4294950708
-0.32267359 0.031929258 -0.11252865 4294231624
-0.3227382 0.03391603 -0.11272005 4293315701
-0.32241878 0.035786219 -0.11219776 4292794010
-0.32210049 0.037652727 -0.11167757 4292730282
-0.32216519 0.039641015 -0.11186909 4292993195
-0.32222998 0.041632142 -0.11206089 4293124522
-0.32153222 0.043361828 -0.11083484 4292402088
-0.32159698 0.045351703 -0.11102653 4290757791
-0.32090399 0.047068238 -0.10980881 4289570696
-0.3205916 0.048916116 -0.10929882 4289634417
-0.3202804 0.050760452 -0.10879086 4291343976
-0.32034507 0.05274789 -0.10898231 4292986716
-0.32078594 0.054888748 -0.10987414 4293637700
-0.32122844 0.057039827 -0.11076936 4292645960
-0.32243434 0.059519853 -0.11308651 4291064664
-0.35485938 -0.016499992 -0.17477316 4285619015
-0.35239521 -0.014458879 -0.17025331 4284569410
-0.35096842 -0.012374457 -0.16766977 4283057463
-0.34955871 -0.01031175 -0.1651172 4282661675
-0.34816572 -0.0082703838 -0.16259509 4282597684
-0.34631088 -0.0063017011 -0.15920895 4283387451
-0.34495592 -0.0043054717 -0.1567561 4286266679
-0.34130585 -0.0026200793 -0.15001144 4288303684
-0.33910599 -0.00080209703 -0.14597632 4289416523
-0.33738941 0.001048044 -0.14284353 4288760906
-0.33482933 0.0027410989 -0.13813196 4288235334
-0.33403271 0.0046747299 -0.13671805 4287642942
-0.33239153 0.0064523588 -0.1337233 4286135869
-0.33119285 0.0082817804 -0.13155566 4286267965
-0.3295933 0.010016342 -0.12863694 4286665795
-0.32842508 0.01180899 -0.12652476 4286865485
-0.32726952 0.013585144 -0.1244356 4287323984
-0.32532847 0.015173974 -0.12087463 4288368457
-0.32460013 0.017000765 -0.11958398 4289611331
-0.32348543 0.018726485 -0.11756916 4290666072
-0.32315898 0.020624068 -0.11703074 4293632886
-0.32205987 0.022324232 -0.11504405 4294816334
-0.32135469 0.024108415 -0.11379506 4294948662
-0.32103559 0.025985138 -0.11326962 4294949938
-0.32071775 0.027858086 -0.11274625 4294950963
-0.32040104 0.029727316 -0.11222494 4294819902
-0.32008559 0.031592846 -0.11170578 4293837927
-0.31977126 0.033454724 -0.11118864 4293056153
-0.31945813 0.035312939 -0.11067356 4292928172
-0.31914616 0.037167579 -0.11016055 4292271531
-0.3192094 0.039142299 -0.1103517 4290824099
-0.31927273 0.041119847 -0.11054314 4289768593
-0.31896186 0.042969652 -0.11003201 4289240448
-0.31865218 0.044815887 -0.1095229 4287795063
-0.31834367 0.046658639 -0.10901587 4286809970
-0.31803626 0.048497867 -0.10851082 4287138161
-0.31809962 0.050475854 -0.10870229 4289373310
-0.31816304 0.052456673 -0.10889403 4292134526
-0.31859764 0.054589819 -0.1097836 4293181789
-0.3190338 0.056733135 -0.11067649 4293504324
-0.31984672 0.05904467 -0.11227822 4291658317
-0.32104447 0.061538178 -0.11460447 4290545506
-0.35320732 -0.016504753 -0.17627482 4285621838
-0.35075852 -0.014463425 -0.17174098 4284440141
-0.34884849 -0.01241927 -0.16822168 4283320894
-0.34793922 -0.010315898 -0.1665893 4282595624
-0.34655473 -0.0082743391 -0.1640595 4282729013
-0.34471136 -0.0063054892 -0.16066295 4284240449
-0.3433646 -0.0043090656 -0.15820266 4285151797
-0.34019342 -0.0025657357 -0.15229706 4287255875
-0.3379989 -0.00074468704 -0.14823365 4287905599
-0.33628628 0.0011086608 -0.14507896 4287379515
-0.33373269 0.0028043485 -0.14033462 4287182906
-0.33293763 0.0047414978 -0.13891087 4286659385
-0.33087876 0.0064498978 -0.13509859 4284956986
-0.32885745 0.0081300465 -0.13135599 4285419845
-0.32768783 0.0099367509 -0.12922208 4286211406
-0.32612696 0.011646788 -0.12634768 4286278739
-0.32458848 0.01333523 -0.12351456 4286541399
-0.32307193 0.015002478 -0.12072198 4287586387
-0.3219642 0.016736163 -0.11870182 4288956743
-0.32163936 0.018634604 -0.11816205 4290007377
-0.32093072 0.020435704 -0.11689594 4293760109
-0.31984609 0.022131069 -0.11491784 4294425452
-0.31915006 0.023909904 -0.11367461 4294688066
-0.3188349 0.025780573 -0.11315212 4294950451
-0.31814614 0.027543068 -0.111922 4294950452
-0.31783456 0.029403329 -0.11140577 4294230092
-0.31715298 0.031149777 -0.11018853 4292528004
-0.31684485 0.032999765 -0.10967849 4290626721
-0.31653789 0.034846194 -0.10917051 4289835410
-0.3165997 0.036808129 -0.10936134 4289174397
-0.3166616 0.038772859 -0.10955244 4287925622
-0.31672361 0.040740382 -0.10974382 4286808431
-0.31641772 0.04258148 -0.10923763 4286610792
-0.31647977 0.044551209 -0.10942922 4286348132
-0.31617498 0.046388246 -0.10892496 4286085989
-0.31587136 0.048221819 -0.10842276 4286283370
-0.31593347 0.050193198 -0.10861451 4287795576
-0.31599566 0.052167397 -0.10880655 4290755724
-0.31679139 0.054441951 -0.11039127 4292725630
-0.31722268 0.056581527 -0.11128465 4293900877
-0.31802693 0.0588887 -0.11288662 4292584776
-0.31883684 0.061214685 -0.11449997 4289696344
-0.32003045 0.063726872 -0.11684304 4290291819
-0.35155496 -0.016509522 -0.17777674 4285688917
-0.3491216 -0.01446797 -0.17322889 4284834382
-0.34722343 -0.012423607 -0.1696988 4284110405
-0.3463195 -0.010320044 -0.16806161 4282793776
-0.34494343 -0.0082783215 -0.16552417 4282727984
-0.34358358 -0.006257528 -0.16301681 4283253304
-0.34223971 -0.0042573353 -0.16053902 4283709230
-0.33862209 -0.0025691192 -0.15372548 4286400058
-0.3368873 -0.00068706326 -0.15049976 4287447097
-0.33517879 0.001169513 -0.14732306 4287513406
-0.33306307 0.0029343909 -0.14336839 4287380025
-0.33183825 0.0048085176 -0.14111212 4286921274
-0.32936573 0.0064474456 -0.1364741 4285349953
-0.32694721 0.008053476 -0.13193755 4285879880
-0.32578906 0.0098574879 -0.12980533 4286344020
-0.32384512 0.011485786 -0.12617204 4286345558
-0.32272026 0.013251347 -0.12410159 4286345815
-0.32121855 0.014916389 -0.12131068 4286868567
-0.32050645 0.016734719 -0.12002718 4288042316
-0.31979951 0.018543027 -0.11875302 4289350727
-0.31833941 0.020156192 -0.11603924 4291522661
-0.31764752 0.021939261 -0.11479277 4293506442
-0.31696051 0.023712749 -0.11355522 4294686034
-0.31664923 0.025577458 -0.11303567 4294949430
-0.31596938 0.027334725 -0.11181112 4294950198
-0.31566161 0.029189061 -0.11129777 4293639761
-0.31498879 0.030930426 -0.11008605 4290888585
-0.31468445 0.032774605 -0.10957886 4288325263
-0.31438118 0.034615248 -0.10907366 4287005810
-0.3144418 0.036570642 -0.10926478 4286346850
-0.31450248 0.038528785 -0.10945614 4285952607
-0.31420034 0.040364768 -0.1089529 4285691232
-0.31426114 0.042325158 -0.10914448 4285823331
-0.31432196 0.0442883 -0.10933636 4286020452
-0.31402087 0.046119705 -0.10883492 4286085732
-0.31372091 0.047947634 -0.10833545 4286020454
-0.3137818 0.049912483 -0.1085275 4286809453
-0.31384277 0.051880125 -0.1087198 4288915332
-0.31462747 0.054146092 -0.11029982 4292266896
-0.31541756 0.056430388 -0.11189088 4293641573
-0.31584561 0.058576353 -0.11278804 4293508935
-0.3170144 0.061054863 -0.1151068 4290425164
-0.31819546 0.063562013 -0.11744994 4288981595
-0.34990233 -0.016514283 -0.17927887 4286215516
-0.34748441 -0.014472505 -0.17471705 4285292877
-0.34608361 -0.012387486 -0.17210998 4284504905
-0.34518132 -0.010279761 -0.17046097 4282992699
-0.34333193 -0.008282274 -0.16698906 4282465324
-0.34245118 -0.0062094112 -0.16538012 4282596400
-0.34111023 -0.0042054299 -0.16288471 4282987562
-0.33932477 -0.0022807929 -0.15953273 4286265906
-0.33577123 -0.00062921894 -0.15277472 4287777085
-0.33406684 0.0012305961 -0.14957581 4287976521
-0.33195651 0.002998366 -0.14559364 4287578940
-0.33030915 0.0048058755 -0.14250219 4287578687
-0.32785246 0.0064449948 -0.13784982 4287254867
-0.32544941 0.0080512119 -0.13329925 4286666569
-0.32389688 0.0097785061 -0.13038665 4286475092
-0.32236674 0.011483863 -0.12751612 4286345816
-0.32085842 0.013167725 -0.12468669 4286346328
-0.31937152 0.014830598 -0.12189752 4286411097
-0.31828523 0.016559372 -0.11988021 4287259474
-0.31758749 0.018362146 -0.11861197 4288564550
-0.31652012 0.020062933 -0.11662991 4289746521
-0.31583473 0.021843366 -0.11538445 4293436544
-0.31515417 0.023614263 -0.11414795 4294420578
-0.3144784 0.025375713 -0.11292023 4294620736
-0.31380734 0.027127782 -0.11170118 4294884919
-0.31350332 0.028976293 -0.11119077 4293574483
-0.31283918 0.030712571 -0.10998442 4291282570
-0.31253856 0.032550987 -0.10948009 4288455303
-0.31259799 0.034500431 -0.10967154 4286348134
-0.31229842 0.036334768 -0.10916911 4285494110
-0.31199995 0.038165621 -0.10866864 4285362781
-0.31205937 0.040116701 -0.10886026 4285559902
-0.31176203 0.041943565 -0.10836178 4285757537
-0.31146574 0.043766998 -0.10786519 4285889379
-0.31117055 0.045587007 -0.10737058 4286020452
-0.31087643 0.047403667 -0.10687795 4286020710
-0.31093591 0.049355388 -0.10706961 4286415466
-0.3113493 0.051452104 -0.10794655 4287665018
-0.31247798 0.053852223 -0.11020914 4290754954
-0.31361836 0.05627979 -0.11249524 4292595326
-0.31477058 0.058735251 -0.11480519 4293969228
-0.31593484 0.061219007 -0.11713934 4292589378
-0.31711128 0.063731536 -0.11949807 4289179215
-0.31905818 0.066620089 -0.12335113 4289769316
-0.34584698 -0.014477046 -0.17620541 4285556046
-0.34445485 -0.012391859 -0.17359048 4284571725
-0.34355786 -0.010283913 -0.17193666 4283255360
-0.34219319 -0.008238039 -0.16937339 4282266925
-0.34131405 -0.0061611012 -0.16775298 4282465323
-0.33997604 -0.0041533262 -0.16523983 4282920741
-0.33819485 -0.0022251902 -0.16186406 4285806128
-0.3346507 -0.00057115173 -0.15505865 4287645760
-0.33338892 0.0013564745 -0.15269014 4288306765
-0.33084556 0.0030625521 -0.14782751 4287842881
-0.32962644 0.0049432716 -0.14553981 4288234816
-0.32675228 0.0065146987 -0.14003021 4289027665
-0.32435584 0.0081232302 -0.1354485 4287454033
-0.32240862 0.0097764125 -0.13173968 4286539603
-0.3208881 0.011481933 -0.12886041 4286411352
-0.31938931 0.013165967 -0.12602235 4286411608
-0.31753078 0.014745117 -0.1224825 4286346073
-0.31645504 0.016471457 -0.12046658 4286803542
-0.31539068 0.018182518 -0.11847205 4287846477
-0.31433743 0.019878486 -0.11649854 4289023308
-0.31366098 0.02165355 -0.11525884 4292248678
-0.31298929 0.023419175 -0.11402794 4292911990
-0.31232223 0.025175354 -0.11280575 4293897802
-0.3116599 0.026922289 -0.11159223 4294753078
-0.31100211 0.028660031 -0.11038727 4293771347
-0.31070402 0.030496214 -0.10988373 4292530063
-0.31040701 0.032328881 -0.10938216 4290164631
-0.31011114 0.034158073 -0.10888264 4287268465
-0.31016934 0.036100492 -0.10907432 4285756511
-0.30987448 0.037925709 -0.10857663 4285428830
-0.30993274 0.039870322 -0.10876852 4285625951
-0.30928805 0.041565839 -0.1075872 4285757281
-0.30934632 0.043509416 -0.10777897 4285823330
-0.3087059 0.045192473 -0.10660546 4285955173
-0.30841643 0.047000784 -0.10611751 4286086760
-0.30847463 0.048942808 -0.10630914 4286350700
-0.30922982 0.051169641 -0.10786391 4286811509
-0.31140825 0.054001406 -0.11220307 4288718465
-0.31290537 0.056587014 -0.11521114 4291677320
-0.31405684 0.059052672 -0.11754405 4294365279
-0.31485131 0.061383724 -0.11917916 4294031933
-0.31639618 0.064069994 -0.12228385 4290164040
-0.31796277 0.066796891 -0.12543237 4288588633
-0.34420928 -0.014481586 -0.17769402 4285755222
-0.34330669 -0.012355604 -0.17601465 4284703053
-0.34193417 -0.010288094 -0.17341258 4283715395
-0.3410497 -0.0081935832 -0.17176738 4282397996
-0.34017223 -0.0061125709 -0.17013539 4282464550
-0.33883718 -0.0041010138 -0.16760434 4282593059
-0.33751777 -0.0021099078 -0.16510315 4285084973
-0.3339693 -0.0004511289 -0.158223 4287121216
-0.33270553 0.0014833153 -0.1558284 4288373324
-0.33015925 0.0031945484 -0.150913 4288106822
-0.32893836 0.0050817374 -0.14860041 4288431936
-0.32564783 0.0065846476 -0.14221886 4289155659
-0.32325804 0.0081955157 -0.13760577 4288369239
-0.32092017 0.0097743133 -0.1330929 4286929998
-0.31902015 0.011400907 -0.12943958 4286410582
-0.31753623 0.013082681 -0.12660341 4286476887
-0.3156963 0.01465994 -0.12306567 4286476887
-0.31463107 0.016383853 -0.12105116 4286607960
-0.31320894 0.018004121 -0.11833335 4287260243
-0.31216967 0.019695319 -0.11636834 4288434247
-0.31114125 0.021371789 -0.11442388 4290338643
-0.31048062 0.023129407 -0.11320313 4291266156
-0.30982459 0.024877748 -0.11199094 4292646477
-0.30917314 0.026616884 -0.11078731 4294291256
-0.30887759 0.028450841 -0.1102846 4294295115
-0.30858314 0.030281294 -0.10978393 4293381763
-0.30828974 0.032108285 -0.10928517 4291940004
-0.30799744 0.03393181 -0.10878836 4288979078
-0.30770621 0.035751939 -0.10829354 4286282085
-0.30776319 0.037687395 -0.10848543 4285494625
-0.30747297 0.039503578 -0.10799247 4285626722
-0.30683884 0.041191928 -0.10682062 4285626979
-0.30655181 0.04299856 -0.10633347 4285626469
-0.30592409 0.044672254 -0.1051736 4285890156
-0.30632272 0.046734832 -0.10603984 4286416497
-0.30603778 0.048534367 -0.1055565 4287205495
-0.30712435 0.050889112 -0.10778203 4287929473
-0.31104845 0.054448638 -0.11561425 4289309830
-0.31218722 0.056896318 -0.11794588 4292070791
-0.31333792 0.059372276 -0.12030201 4294959223
-0.31450072 0.061876956 -0.12268302 4294818882
-0.31567577 0.064410843 -0.12508927 4292262213
-0.31686336 0.066974349 -0.12752122 4288982351
-0.31844616 0.069749087 -0.13073599 4289834594
-0.34305465 -0.014449473 -0.18014023 4286478430
-0.34167418 -0.012359945 -0.17749858 4285029966
-0.34078425 -0.010247625 -0.17582805 4284109892
-0.33990142 -0.0081489868 -0.17417105 4282661935
-0.33902568 -0.0060638804 -0.1725274 4282726690
-0.33769357 -0.0040484937 -0.16997838 4282528292
-0.33683521 -0.0019937214 -0.16836777 4284757035
-0.33328247 -0.00033018863 -0.16141196 4286859072
-0.33201674 0.001611102 -0.15899093 4288307531
-0.32946754 0.0033275506 -0.15402207 4288173639
-0.32739714 0.0050790808 -0.15000154 4288433731
-0.32453907 0.0066548432 -0.14441584 4288694342
-0.3217541 0.0081932079 -0.13897306 4289155152
-0.31943145 0.0097721936 -0.13444634 4287322956
-0.31754372 0.011398957 -0.13078189 4286409043
-0.31606928 0.013080932 -0.12793714 4286607190
-0.31386805 0.014575032 -0.12364695 4286607702
-0.31281322 0.016296554 -0.12163384 4286542424
-0.31140515 0.017914761 -0.11891764 4286803799
-0.31037608 0.019603653 -0.11695393 4287912268
-0.30935764 0.02127783 -0.11501072 4289022792
-0.3087033 0.023032941 -0.11379097 4290206286
-0.30805346 0.024778783 -0.11257981 4291130438
-0.30740812 0.026515467 -0.11137711 4293238843
-0.30676726 0.0282431 -0.1101829 4294490176
-0.30647638 0.030067857 -0.10968494 4293903463
-0.30618656 0.031889189 -0.10918901 4293055381
-0.30589777 0.033707075 -0.10869496 4290821269
-0.30561006 0.035521593 -0.10820284 4287466613
-0.30532339 0.037332747 -0.10771269 4285757543
-0.30503777 0.03914053 -0.10722442 4285692776
-0.30441394 0.040821772 -0.10606195 4286088042
-0.30413142 0.042620141 -0.10557943 4286613618
-0.30384988 0.044415221 -0.10509877 4287075456
-0.30424282 0.046470664 -0.10596297 4288128138
-0.30429861 0.048400037 -0.10615516 4290032271
-0.30709511 0.051456571 -0.11181551 4291612829
-0.31068468 0.054900493 -0.11906085 4292401825
-0.3118265 0.057363369 -0.12142343 4294238102
-0.31298026 0.059854865 -0.12381097 4294964122
-0.31414622 0.062375382 -0.12622383 4294950729
-0.31495011 0.064754061 -0.12791461 4293703746
-0.31538394 0.06697689 -0.12886678 4289966151
-0.31657526 0.06957072 -0.13133287 4288523352
-0.34051773 -0.012323586 -0.17993595 4285555796
-0.33962944 -0.010207027 -0.1782534 4284240966
-0.33874834 -0.0081042191 -0.1765845 4282794295
-0.33787429 -0.0060149962 -0.17492914 4283054883
-0.33700719 -0.0039391913 -0.17328708 4282922534
-0.33568856 -0.001937005 -0.1707399 4285347374
-0.33393398 -1.8827097e-05 -0.16731828 4287384386
-0.33088285 0.0016738529 -0.16129713 4288437321
-0.32877037 0.0034615553 -0.15715493 4288305735
-0.32669762 0.0052185464 -0.15309086 4288566086
-0.32301649 0.0066523831 -0.14580004 4288629313
-0.32064912 0.0082657551 -0.14114121 4289155397
-0.31794247 0.0097701056 -0.13580002 4287911758
-0.31606704 0.011397044 -0.13212439 4286668365
-0.31460208 0.013079147 -0.12927105 4286671958
-0.31278592 0.014656741 -0.12571171 4286673751
-0.31100154 0.01620956 -0.1222147 4286542424
-0.30996805 0.017913502 -0.12022424 4286607959
-0.30858845 0.019512316 -0.11753775 4287651665
-0.30757996 0.02118424 -0.11559581 4288564293
-0.30693179 0.022936815 -0.11437701 4289155393
-0.30628812 0.024680149 -0.11316685 4289556035
-0.30564892 0.026414376 -0.11196516 4291532604
-0.30501407 0.028139563 -0.11077184 4293833784
-0.30472565 0.02996159 -0.1102747 4294294856
-0.30409729 0.031671558 -0.10909364 4293708145
-0.30381203 0.033483852 -0.10860237 4292595096
-0.30352777 0.035292804 -0.10811298 4290293647
-0.30290785 0.036981631 -0.10694791 4287663738
-0.3026267 0.038781095 -0.10646427 4286877566
-0.30234656 0.040577289 -0.10598252 4288258182
-0.30206746 0.042370234 -0.10550269 4290294926
-0.30178934 0.044159934 -0.10502467 4291416992
-0.30251029 0.046339825 -0.10655922 4291681709
-0.30425134 0.048946809 -0.11014992 4292009644
-0.30636859 0.051743973 -0.11450016 4292533414
-0.30995697 0.055204894 -0.12181781 4292992413
-0.31146175 0.057835303 -0.1249375 4294966681
-0.31261861 0.060342513 -0.12735693 4294964654
-0.31341603 0.062711284 -0.12905236 4294951760
-0.31421915 0.065099724 -0.13076007 4294163009
-0.31465212 0.067331143 -0.13172156 4291605316
-0.31546402 0.069754526 -0.13344838 4288916818
-0.3162818 0.072198056 -0.1351877 4290096740
-0.33935633 -0.01228704 -0.18238321 4286411866
-0.33846977 -0.010166226 -0.18068859 4284570186
-0.33759043 -0.0080592623 -0.1790078 4283189306
-0.33671808 -0.0059659062 -0.17734058 4283449385
-0.33539221 -0.0039428249 -0.17475517 4283185449
-0.33453721 -0.0018800732 -0.17312157 4286265908
-0.33278704 4.1529445e-05 -0.16967577 4288304457
-0.3297444 0.0017368515 -0.16361244 4288697157
-0.32763758 0.0035274809 -0.15944134 4288436552
-0.3251501 0.0052158842 -0.1544977 4288632648
-0.32190031 0.0067228242 -0.14800814 4288695618
-0.31953982 0.0083385408 -0.14331745 4288628033
-0.31645331 0.0097679812 -0.13715386 4288759881
-0.31497136 0.011474183 -0.13423963 4286928201
-0.31313467 0.0130774 -0.13060518 4286408786
-0.31096235 0.014571871 -0.12628876 4286607959
-0.30955771 0.016208114 -0.12352742 4286674007
-0.30817264 0.017824464 -0.1208047 4286804053
-0.30680671 0.019421255 -0.11811971 4287585101
-0.30580816 0.02109096 -0.11617904 4288107843
-0.30516613 0.022841014 -0.1149613 4287851328
-0.30452856 0.024581859 -0.11375205 4287926085
-0.30355358 0.0262137 -0.11185736 4289372993
-0.30326658 0.028036393 -0.11135904 4292194615
-0.30264205 0.029750284 -0.11017498 4294162742
-0.30235821 0.031563252 -0.10968252 4294229575
-0.30207533 0.033372853 -0.10919196 4293643123
-0.30145922 0.035065543 -0.10802392 4292595859
-0.30117941 0.036865637 -0.10753913 4291611799
-0.3005695 0.038543675 -0.10638298 4291483041
-0.30029273 0.040334441 -0.10590386 4291682478
-0.30001694 0.042121977 -0.10542662 4291878317
-0.30007029 0.044033408 -0.1056188 4292139434
-0.30078337 0.046209395 -0.10715376 4292401063
-0.30352092 0.049223628 -0.11281007 4292531874
-0.30563685 0.05203329 -0.11720325 4293188757
-0.30958393 0.055664599 -0.12532705 4294892947
-0.31109291 0.058312219 -0.12848862 4294967230
-0.31225291 0.060835283 -0.13094054 4294964405
-0.31305221 0.063218504 -0.13265854 4294951765
-0.31348273 0.065447792 -0.13362581 4294228035
-0.31354025 0.067510501 -0.13383323 4292916544
-0.31397262 0.069757245 -0.13480489 4289703497
-0.31440657 0.072014913 -0.13578032 4288916826
-0.33683535 -0.01017043 -0.18217427 4285491021
-0.33596137 -0.0080632763 -0.1804886 4284174653
-0.33509439 -0.0059697381 -0.17881656 4283910965
-0.3342343 -0.003889678 -0.17715804 4283382311
-0.33292717 -0.0018835295 -0.17458516 4286069817
-0.33118841 3.8277274e-05 -0.171129 4288305997
-0.32816616 0.0017337704 -0.16504715 4288761410
-0.32607326 0.0035246254 -0.16086343 4288434246
-0.32360235 0.0052132234 -0.15590477 4288501833
-0.32037443 0.0067203622 -0.14939532 4288565574
-0.31842619 0.0084116235 -0.14550191 4288563263
-0.31496391 0.0097658951 -0.13850795 4288956991
-0.31349158 0.011472268 -0.13558495 4287256139
-0.31129509 0.012994397 -0.13117796 4286406476
-0.30914488 0.014487267 -0.12686397 4286475859
-0.30739638 0.016036469 -0.12337102 4286738772
-0.30603001 0.017648529 -0.12065969 4287326544
-0.30503091 0.019330535 -0.11869989 4287781955
-0.30404216 0.020997999 -0.11676046 4287458624
-0.30340627 0.022745539 -0.11554375 4287073347
-0.30277476 0.024483897 -0.11433557 4287144518
-0.30180937 0.026113635 -0.112442 4287998022
-0.30118868 0.027831443 -0.11125494 4290817083
-0.30090618 0.029645093 -0.11076132 4293571635
-0.3006247 0.031455334 -0.11026959 4294490677
-0.30001238 0.033151869 -0.10909858 4294228546
-0.29973394 0.034952603 -0.10861265 4293509734
-0.29912779 0.036634453 -0.10745355 4292792457
-0.29852572 0.038307827 -0.10630235 4292663703
-0.29825228 0.040093202 -0.10582591 4292599198
-0.29830444 0.041998897 -0.10601843 4292599199
-0.29835671 0.043907337 -0.1062112 4292598427
-0.29971913 0.046342146 -0.10909757 4292794003
-0.30312577 0.04964171 -0.11618858 4293251460
-0.30594632 0.052763086 -0.1220772 4293905512
-0.30920675 0.056129128 -0.12887327 4294959227
-0.31072003 0.058794137 -0.13207741 4294967226
-0.31188309 0.06133331 -0.1345623 4294965941
-0.3123112 0.063560404 -0.13553536 4294952278
-0.31236771 0.065623946 -0.13574381 4294293828
-0.3124243 0.067690492 -0.13595256 4293834045
-0.31248096 0.069759957 -0.13616163 4290949699
-0.31291118 0.072017804 -0.13714045 4288654420
-0.31562075 0.075439483 -0.14281651 4289834091
-0.33433208 -0.0080672596 -0.18196964 4285358148
-0.3334704 -0.0059735612 -0.18029277 4284173368
-0.33261561 -0.003893326 -0.17862946 4283317035
-0.33131689 -0.0018869769 -0.17604898 4285545783
-0.32958955 3.5019246e-05 -0.17258248 4288044618
-0.32658768 0.0017307204 -0.16648212 4288763462
-0.3245087 0.0035217421 -0.16228576 4288563523
-0.3216413 0.0051393392 -0.15645857 4288368196
-0.31884828 0.0067178723 -0.15078273 4288501321
-0.31691304 0.0084093129 -0.14687757 4288564803
-0.31347427 0.009763781 -0.13986222 4288824639
-0.3120116 0.011470317 -0.13693048 4288497477
-0.3098298 0.012992651 -0.13251014 4286862407
-0.30769402 0.014485694 -0.12818305 4286474577
-0.30595711 0.016035032 -0.12467957 4286999633
-0.3045997 0.017647281 -0.12196013 4287716167
-0.30326101 0.019240141 -0.11927831 4287326528
-0.30228201 0.020905372 -0.11734016 4286743107
-0.30165216 0.022650391 -0.11612441 4286747204
-0.30102667 0.024386272 -0.11491723 4287012677
-0.30007076 0.026013928 -0.11302483 4287473734
-0.29945603 0.027729312 -0.11183874 4289047105
-0.29884544 0.029435905 -0.11066084 4291998007
-0.29856735 0.03124062 -0.1101719 4294096434
-0.29829028 0.033041991 -0.1096848 4294488624
-0.29768789 0.03472764 -0.10852277 4294423604
-0.29708955 0.03640477 -0.10736866 4294162494
-0.29681742 0.038190749 -0.10689108 4293639246
-0.29622504 0.039853547 -0.10574866 4293312606
-0.29627609 0.041753095 -0.10594144 4293313127
-0.29794478 0.044290911 -0.10949334 4293575518
-0.29997393 0.047007848 -0.1137953 4293902670
-0.30341297 0.050347142 -0.12102812 4293902152
-0.30590737 0.053356282 -0.12630121 4293705029
-0.30918905 0.056755561 -0.13321285 4294757723
-0.31034291 0.059281167 -0.13570443 4294961287
-0.31113747 0.061668932 -0.13745022 4294961561
-0.31119296 0.063733369 -0.13765973 4294689103
-0.31087792 0.06562636 -0.13709879 4293899329
-0.3105641 0.067515589 -0.13654013 4293833018
-0.31025147 0.069401115 -0.13598377 4292195392
-0.31030697 0.071466401 -0.13619336 4289310028
-0.31259218 0.074671254 -0.14104499 4289178205
-0.33139175 -0.0060302666 -0.18082188 4284634942
-0.33054569 -0.0039537307 -0.17916077 4283055922
-0.32970634 -0.0018904598 -0.17751302 4283972660
-0.32799041 3.1733045e-05 -0.17403616 4287387458
-0.32673517 0.0019942818 -0.17151891 4288503114
-0.3229439 0.0035188897 -0.1637083 4288434759
-0.32009596 0.0051366561 -0.15786344 4288300349
-0.31732193 0.0067154136 -0.15217039 4288433731
-0.31539962 0.008407034 -0.14825346 4288369479
-0.31236431 0.0098385122 -0.14201024 4288563266
-0.31053135 0.011468374 -0.13827623 4288694334
-0.30799887 0.01290995 -0.13307889 4287124297
-0.30624291 0.014484091 -0.12950236 4286405964
-0.30451763 0.016033616 -0.12598833 4287323469
-0.30316916 0.017646004 -0.12326077 4287586371
-0.30183926 0.019239018 -0.12057097 4287003973
-0.30086654 0.020904426 -0.11862713 4286352198
-0.29990384 0.022555541 -0.11670335 4286352966
-0.29928431 0.024288977 -0.11549712 4286748741
-0.29800767 0.02581596 -0.11291484 4287144773
-0.29740086 0.027526397 -0.11173397 4287866439
-0.29712418 0.029331772 -0.11124384 4290554429
-0.29652351 0.031027311 -0.11007499 4293505329
-0.29624981 0.032823212 -0.10959066 4294423600
-0.29565516 0.034504134 -0.10843363 4294423344
-0.29506457 0.036176611 -0.1072846 4294292275
-0.29447794 0.03784078 -0.10614339 4294095670
-0.29421097 0.039615475 -0.10567212 4294030649
-0.29553482 0.04200061 -0.10853709 4294031165
-0.29752854 0.044678338 -0.11280856 4294030652
-0.29956272 0.047413122 -0.11716687 4294096952
-0.30370495 0.051064737 -0.12595135 4294031929
-0.30586764 0.053957764 -0.13058428 4293769529
-0.30807608 0.056914844 -0.13531543 4294164035
-0.30885869 0.059283055 -0.13705428 4294427469
-0.30891281 0.061337411 -0.13726373 4294296661
-0.30896702 0.06339471 -0.13747349 4293965887
-0.30792925 0.064937249 -0.13538861 4293309500
-0.30798334 0.066989556 -0.13559787 4292849466
-0.30767581 0.068866238 -0.13504703 4291538493
-0.30772996 0.070920847 -0.1352565 4289309509
-0.30960622 0.073913902 -0.13929871 4288391507
-0.31077009 0.076573014 -0.14184394 4289505899
-0.32892966 -0.003957395 -0.18062979 4283582521
-0.32765287 -0.0019542573 -0.17804469 4283053865
-0.32639107 2.8477942e-05 -0.17549007 4286794812
-0.32514399 0.0019912138 -0.17296541 4288306507
-0.32137886 0.0035160091 -0.16513105 4288633673
-0.31855038 0.0051340042 -0.15926851 4288563260
-0.31579533 0.0067129261 -0.15355821 4288300601
-0.31388596 0.0084047271 -0.14962956 4288433729
-0.31087151 0.0098364251 -0.14336741 4288564032
-0.30868033 0.011387385 -0.13884005 4288628029
-0.30653572 0.012908184 -0.13440911 4288301887
-0.3044363 0.014399801 -0.13007161 4287255616
-0.30307794 0.016032182 -0.1272973 4287518274
-0.30139384 0.017557893 -0.12383381 4287329347
-0.30041733 0.019237926 -0.12186382 4286744391
-0.2994509 0.020903457 -0.11991428 4286150984
-0.29849437 0.022554751 -0.11798489 4286151499
-0.29754761 0.024192017 -0.11607531 4286681160
-0.29661047 0.025815472 -0.11418527 4287012934
-0.29568282 0.027425315 -0.11231446 4287276614
-0.29508588 0.029124677 -0.11114267 4288915520
-0.29481351 0.030921193 -0.11065718 4291931446
-0.2945421 0.03271443 -0.11017351 4293899056
-0.29395315 0.03439308 -0.10901742 4294160687
-0.29336813 0.03606331 -0.10786924 4294160943
-0.29310158 0.03784132 -0.10739501 4294160689
-0.29346609 0.03985494 -0.1082576 4294226225
-0.29510939 0.042374529 -0.11183031 4294291762
-0.29678029 0.044939157 -0.1154632 4294160691
-0.30015695 0.048234958 -0.12271376 4294030130
-0.30330122 0.051501822 -0.12947492 4294030645
-0.30511403 0.054262456 -0.13341537 4293703222
-0.30623817 0.056758981 -0.13589656 4293637689
-0.30629089 0.058799762 -0.1361056 4293637176
-0.30634367 0.060843457 -0.13631493 4293177912
-0.30675659 0.063058443 -0.13728887 4292325432
-0.30537662 0.064427331 -0.13445652 4291406908
-0.30472019 0.066123396 -0.13315953 4290553918
-0.30406836 0.067810565 -0.13187182 4289439296
-0.30412087 0.069843911 -0.13208009 4288259651
-0.30702254 0.073353648 -0.13834336 4287670350
-0.3081654 0.075995862 -0.140871 4288850017
-0.32731345 -0.0039610211 -0.182099 4284702279
-0.32604501 -0.0019577343 -0.1795063 4283054891
-0.32479149 2.5194664e-05 -0.17694418 4285415224
-0.32355255 0.0019881176 -0.17441215 4287847755
-0.31981355 0.0035131301 -0.16655403 4288503631
-0.31660172 0.0050604083 -0.15981561 4288434757
-0.31426847 0.0067104409 -0.1549463 4288168760
-0.31237206 0.0084024211 -0.15100586 4287972924
-0.30900395 0.009757462 -0.14392635 4288302657
-0.30757019 0.011464517 -0.14096837 4288563774
-0.30507237 0.012906413 -0.13573955 4288562749
-0.30334008 0.01448092 -0.13214156 4288105532
-0.30163801 0.016030747 -0.12860647 4287260226
-0.30030742 0.017643478 -0.12586269 4286873926
-0.29899517 0.019236805 -0.12315688 4286086728
-0.29837027 0.020994209 -0.12191749 4285887310
-0.29741666 0.022647988 -0.1199755 4286215506
-0.2961441 0.024191383 -0.11735145 4286481486
-0.29521307 0.025814978 -0.11545589 4286814280
-0.29429144 0.027424969 -0.11357961 4287211079
-0.29369816 0.02912448 -0.11240451 4287932485
-0.29310897 0.030815395 -0.11123755 4290488634
-0.29283985 0.032605976 -0.11075462 4293308209
-0.29257169 0.034393311 -0.11027361 4294095666
-0.29230452 0.036177434 -0.10979445 4294095409
-0.29235256 0.038075197 -0.10998973 4294160688
-0.29366863 0.040459581 -0.1128993 4294160177
-0.29500234 0.042878639 -0.11584806 4294160178
-0.29800776 0.045996983 -0.12237804 4294028850
-0.29973987 0.048652831 -0.12618369 4293832753
-0.30254343 0.051796194 -0.13228661 4293701684
-0.30364701 0.054263987 -0.13474955 4293308727
-0.30440643 0.056603696 -0.13647585 4292522295
-0.30410329 0.058481034 -0.13592498 4291734585
-0.30380121 0.060354687 -0.13537624 4290881595
-0.30314907 0.06205928 -0.13407645 4289832510
-0.30180737 0.063421048 -0.13129671 4288782914
-0.30082598 0.06493479 -0.12928899 4288127044
-0.30053505 0.066776641 -0.12876229 4287537480
-0.300928 0.068963952 -0.12970357 4287275336
-0.30375868 0.072430916 -0.13587995 4287276107
-0.30594727 0.075615503 -0.14068015 4288324951
-0.32400224 -0.002021278 -0.18003349 4283843896
-0.32276192 -4.1660733e-05 -0.17747431 4284037678
-0.32153603 0.0019180221 -0.1749451 4287320641
-0.318248 0.0035102821 -0.16797723 4288240974
-0.31545851 0.0051286379 -0.16207932 4288239687
-0.31274143 0.0067079491 -0.15633456 4286986808
-0.31085792 0.008400117 -0.1523824 4287183672
-0.30788523 0.009832195 -0.14608234 4288040257
-0.30608931 0.011462571 -0.14231472 4288432703
-0.30360878 0.012904679 -0.13707021 4288497469
-0.30223981 0.014562301 -0.13421907 4287975996
-0.30054331 0.016114298 -0.13066064 4287133763
-0.29921702 0.017729392 -0.12789883 4286482504
-0.29790899 0.019325009 -0.12517525 4285889097
-0.29695177 0.020993236 -0.12320725 4285887314
-0.29600438 0.022647208 -0.12125959 4286215254
-0.29474041 0.024190741 -0.11862778 4286282322
-0.29349342 0.025716251 -0.11603152 4286483787
-0.29258093 0.027324192 -0.11415642 4286947144
-0.29199344 0.029021384 -0.11298232 4287407431
-0.29172468 0.030815369 -0.1124963 4289046334
-0.29145688 0.032606088 -0.1120122 4292062260
-0.29119006 0.034393571 -0.11153001 4293767729
-0.29123712 0.036291938 -0.11172625 4293964081
-0.29222968 0.038547039 -0.11396693 4293963825
-0.29582664 0.041824963 -0.12184153 4293832497
-0.29719916 0.044298906 -0.1249077 4293832500
-0.29892915 0.046946608 -0.1287488 4293569846
-0.30034471 0.04950035 -0.13191129 4293111092
-0.30143189 0.051944856 -0.13436431 4292193078
-0.30217978 0.054265533 -0.13608392 4291471418
-0.30258092 0.056448936 -0.1370534 4290422077
-0.3019307 0.058164511 -0.13574579 4289110848
-0.3009389 0.059710253 -0.13369751 4288323394
-0.29961598 0.061080813 -0.13093069 4287668038
-0.29864818 0.06259869 -0.12893239 4287209547
-0.29636285 0.063447364 -0.12407655 4287012684
-0.29608291 0.065263823 -0.12356763 4286880589
-0.29646125 0.067415386 -0.12448671 4286879823
-0.30089539 0.071704857 -0.13420647 4287011661
-0.30409989 0.075427987 -0.14126216 4287602771
-0.30594748 0.078478202 -0.14537562 4289111657
-0.32196715 -0.002084601 -0.18055882 4284636232
-0.32073995 -0.00010828933 -0.17800258 4283185458
-0.31994718 0.0019149396 -0.17638946 4286138428
-0.31627467 0.0034386257 -0.16851455 4287847756
-0.31351519 0.0050550611 -0.16262159 4287977543
-0.31121409 0.0067054667 -0.15772305 4286068278
-0.30934358 0.0083978139 -0.15375912 4286855736
-0.30676219 0.0099071888 -0.14824635 4287778883
-0.30497208 0.01153998 -0.14445348 4288236352
-0.30250001 0.012983835 -0.13917412 4287844671
-0.30078524 0.014560699 -0.13554151 4287130689
-0.2991004 0.016112868 -0.13197252 4286743622
-0.29778308 0.017728115 -0.12920256 4286086213
-0.29681885 0.019413495 -0.12720083 4285887307
-0.29586461 0.021084299 -0.12522 4286083669
-0.2945919 0.02264639 -0.12254389 4286214998
-0.29333645 0.024190079 -0.11990432 4286280787
-0.29209793 0.025715737 -0.11730041 4286349647
-0.29119146 0.027323849 -0.11541986 4286682696
-0.2906076 0.02902119 -0.11424244 4287145031
-0.29034016 0.030815322 -0.11375526 4288063813
-0.29007369 0.032606211 -0.11326997 4290357820
-0.28980815 0.034393836 -0.11278661 4293111345
-0.29016596 0.036406811 -0.11366462 4293636146
-0.29146981 0.038785592 -0.11660998 4293570358
-0.29375857 0.041573774 -0.12170938 4293308729
-0.29511133 0.04403777 -0.12476511 4293047100
-0.29715139 0.046810739 -0.12932506 4291996478
-0.29889202 0.049501579 -0.13323238 4291143484
-0.29997057 0.051946204 -0.1356933 4289832511
-0.30036533 0.054115228 -0.13665932 4288782145
-0.30006862 0.055984534 -0.13611262 4287994950
-0.29908711 0.057536222 -0.13406669 4287340363
-0.29744151 0.058759201 -0.13056575 4287078220
-0.29582405 0.059964206 -0.12712482 4287077710
-0.29423398 0.061151672 -0.12374227 4286880595
-0.29331189 0.062641524 -0.12182173 4286813783
-0.29335961 0.064607605 -0.12202588 4286680408
-0.29405335 0.066911452 -0.12364625 4286481240
-0.29840952 0.071167625 -0.13329786 4286284627
-0.30225876 0.075241059 -0.14184231 4286681683
-0.30444482 0.0784816 -0.14674245 4288324198
-0.31914583 -0.00011155435 -0.17945173 4283449657
-0.31794098 0.001845089 -0.176918 4284629048
-0.31633928 0.0037123992 -0.17351124 4287321928
-0.31197155 0.0050523896 -0.16402489 4287583814
-0.30968654 0.0067029851 -0.15911177 4285674289
-0.30820757 0.0084711229 -0.15596834 4286594103
-0.30563486 0.0099824583 -0.15041843 4287583300
-0.30385062 0.011617668 -0.14660019 4287910467
-0.30138707 0.01306327 -0.14128564 4287261509
-0.30002689 0.014725927 -0.13839661 4286612292
-0.29799896 0.016196676 -0.13403651 4286482758
-0.29702416 0.017902052 -0.13199289 4285756227
-0.29572478 0.019502314 -0.12923361 4285886284
-0.29477352 0.021175653 -0.12723982 4286148948
-0.29350504 0.022739951 -0.12454636 4286214485
-0.29193231 0.02418945 -0.12118106 4286214484
-0.29070219 0.025715254 -0.11856949 4286281809
-0.28948855 0.027223418 -0.115993 4286483787
-0.28891036 0.028918413 -0.11481655 4286947656
-0.28864521 0.030709904 -0.11433014 4287802447
-0.28838101 0.032498129 -0.11384564 4289572168
-0.28842607 0.0343941 -0.1140434 4291865142
-0.28971505 0.036752932 -0.11698697 4292718650
-0.29038888 0.038905777 -0.1185739 4293113160
-0.29364106 0.042080011 -0.12585554 4292723284
-0.2950013 0.044564504 -0.12896158 4291474508
-0.29604557 0.046948697 -0.13137116 4289505094
-0.29777858 0.049645558 -0.13530393 4288454468
-0.29782629 0.051653553 -0.13551337 4287734089
-0.29753444 0.053514693 -0.13497218 4287340107
-0.29724365 0.055372238 -0.13443311 4286946894
-0.29628247 0.05691658 -0.13241084 4286749525
-0.29467103 0.058136646 -0.12894896 4286945369
-0.29308692 0.059338901 -0.12554587 4287075164
-0.29152948 0.060523804 -0.12220022 4286810464
-0.29094169 0.062165476 -0.121 4286545764
-0.29067248 0.063960128 -0.12050489 4286347876
-0.29135153 0.066246524 -0.12211023 4286150752
-0.29495552 0.070106715 -0.1301975 4285822297
-0.29972965 0.074677952 -0.14088213 4286087764
-0.30152357 0.077700369 -0.1449652 4287864158
-0.31713429 -0.00017791704 -0.17997561 4284306756
-0.31594229 0.0017755176 -0.17744476 4283448371
-0.31435782 0.0036399567 -0.17404148 4286532670
-0.31081891 0.0051206108 -0.16629715 4286993990
-0.30815876 0.0067005055 -0.16050071 4285411628
-0.30668998 0.0084688179 -0.15734802 4286332212
-0.3045032 0.01005801 -0.15259862 4287452226
-0.30236369 0.011615722 -0.14795204 4287126853
-0.30026996 0.013142997 -0.14340496 4286611790
-0.29891422 0.014808178 -0.14049679 4286417990
-0.29723492 0.016366625 -0.13686755 4286483781
-0.2962597 0.01807721 -0.13480295 4285824070
-0.29496011 0.019681942 -0.13201556 4285755724
-0.2936784 0.02126734 -0.12926675 4286017619
-0.29241431 0.022833804 -0.12655583 4286148692
-0.29084709 0.024285126 -0.12316871 4286148692
-0.28962126 0.025813008 -0.12054035 4286149459
-0.28810096 0.027223077 -0.11725472 4286284624
-0.28721851 0.028815974 -0.11538896 4286749260
-0.28726256 0.030709859 -0.11558738 4287802194
-0.28699967 0.032498248 -0.11510172 4289114452
-0.28673771 0.0342834 -0.11461792 4290094913
-0.28832254 0.036753342 -0.11825326 4291277388
-0.28930408 0.039026335 -0.12054452 4292397669
-0.291895 0.041953709 -0.12642844 4291548268
-0.29389635 0.044697993 -0.13099928 4289046359
-0.2952691 0.047224987 -0.13416889 4287734347
-0.29598594 0.049503986 -0.13587524 4287340362
-0.29569668 0.051362935 -0.13533495 4287012433
-0.29507482 0.053070098 -0.13405137 4287011417
-0.29445729 0.054768372 -0.13277686 4287140956
-0.29318896 0.056153432 -0.13004692 4287009125
-0.29161632 0.057369802 -0.12663518 4286613611
-0.29070368 0.058875993 -0.12469812 4286349417
-0.28917295 0.060058985 -0.12137722 4286282340
-0.28890607 0.061851524 -0.12088293 4286216291
-0.28864017 0.063640907 -0.12039065 4286150498
-0.28930917 0.065918766 -0.12199119 4286019167
-0.2922143 0.069412418 -0.1286 4285756505
-0.29722673 0.0741207 -0.13993219 4285889361
-0.29898816 0.077122495 -0.14398643 4287402835
-0.31435883 0.0017724466 -0.17888425 4283448886
-0.31238359 0.0035677913 -0.17456989 4285088049
-0.3092719 0.0051179379 -0.16770354 4285745725
-0.30663073 0.0066980273 -0.16188984 4284756263
-0.30517212 0.0084665138 -0.15872794 4285545010
-0.30300084 0.010055886 -0.15396446 4286532669
-0.30123505 0.011693683 -0.15010932 4286211651
-0.29914865 0.013223003 -0.14553203 4285956430
-0.29779741 0.014890722 -0.14260462 4286089543
-0.29612395 0.016451331 -0.13895139 4286419269
-0.29515183 0.018164629 -0.13687326 4286221128
-0.29385662 0.01977166 -0.13406765 4285888586
-0.29257932 0.021359317 -0.13130093 4285886544
-0.29131955 0.022928005 -0.12857233 4286083156
-0.289758 0.024381118 -0.12516335 4286082899
-0.28822276 0.025812527 -0.12181194 4286017621
