# .PCD v0.7 - Point Cloud Data file format
VERSION 0.7
FIELDS x y z rgba
SIZE 4 4 4 4
TYPE F F F U
COUNT 1 1 1 1
WIDTH 1010
HEIGHT 1
VIEWPOINT 0 0 0 1 0 0 0
POINTS 1010
DATA ascii
-0.34231117 0.024747092 -0.12351887 4289965695
-0.34371114 0.027144708 -0.12603575 4289176699
-0.34512675 0.029571874 -0.12858082 4288313192
-0.34655821 0.032029066 -0.13115457 4286603871
-0.3475467 0.03439134 -0.13295269 4284910721
-0.34808168 0.036644384 -0.13395642 4283803811
-0.34908167 0.039043322 -0.13577574 4283805099
-0.35197312 0.042026531 -0.14091232 4283804330
-0.3534826 0.044636041 -0.14362687 4283607981
-0.35404164 0.046972696 -0.14467518 4283673773
-0.35508797 0.049478948 -0.14657871 4283804589
-0.35468125 0.051520631 -0.14593346 4284393901
-0.35427624 0.053557605 -0.145291 4284591532
-0.35387287 0.055589892 -0.14465126 4284132780
-0.35204169 0.057104226 -0.14150511 4285050799
-0.3502382 0.058598869 -0.13840656 4285709752
-0.34984952 0.060596641 -0.13779144 4285185194
-0.34946245 0.06259001 -0.13717884 4286426252
-0.34861574 0.064397469 -0.13575886 4287735687
-0.34961727 0.066935606 -0.13758525 4286358415
-0.34923166 0.068922691 -0.13697509 4284718745
-0.3507044 0.071684726 -0.13963036 4285571480
-0.35362154 0.075092696 -0.14482501 4288523151
-0.37004501 -0.052128699 -0.17391445 4286285904
-0.36791566 -0.049756769 -0.17024164 4285627982
-0.36106098 -0.047155701 -0.15825634 4286023246
-0.35654396 -0.044777896 -0.15037976 4286353224
-0.35413587 -0.042555977 -0.14621136 4286812742
-0.3522577 -0.04038889 -0.14297418 4287142476
-0.34993237 -0.038241621 -0.13894911 4287669079
-0.34858751 -0.03614521 -0.13664865 4288062042
-0.34725803 -0.03406981 -0.13437462 4287207249
-0.34640417 -0.03201367 -0.13293736 4286020941
-0.34509963 -0.029975343 -0.13070607 4286083920
-0.34380978 -0.027957028 -0.12850001 4286346322
-0.34298173 -0.025945796 -0.12710673 4286477143
-0.3421599 -0.023946641 -0.12572402 4286477398
-0.34134421 -0.021959465 -0.12435178 4286544210
-0.34053463 -0.019984107 -0.12298992 4286547787
-0.34016746 -0.017993432 -0.12240747 4286805826
-0.33980173 -0.016007265 -0.12182746 4287581245
-0.34074748 -0.0139224 -0.12355965 4286665027
-0.34038019 -0.011934446 -0.12297694 4286606929
-0.3404513 -0.009909153 -0.1231673 4286476373
-0.33878386 -0.0080621215 -0.12029089 4286672470
-0.33799455 -0.0061428626 -0.11896287 4286998095
-0.33721104 -0.0042346972 -0.11764473 4287585095
-0.33643326 -0.0023374897 -0.11633635 4288367170
-0.33566117 -0.00045114526 -0.11503759 4289087037
-0.33489472 0.0014245175 -0.11374845 4289872703
-0.3345485 0.0033538667 -0.11320096 4290136903
-0.33461851 0.0053470246 -0.11338829 4290336597
-0.33468857 0.0073429951 -0.11357588 4290200644
-0.33475876 0.0093417326 -0.11376373 4288823871
-0.33482903 0.011343275 -0.11395187 4285350215
-0.33531624 0.013430063 -0.11487684 4287597921
-0.33622524 0.015613787 -0.11654752 4285098071
-0.33714092 0.017816115 -0.11823057 4284512874
-0.33849111 0.020132845 -0.12068238 4285759598
-0.33942354 0.022377366 -0.12239628 4286090340
-0.34036285 0.024641193 -0.12412295 4288454518
-0.3421894 0.027143855 -0.1274194 4289041783
-0.34314951 0.029456224 -0.12918426 4288308574
-0.34456626 0.031908371 -0.13175757 4285689967
-0.34509152 0.034141421 -0.13275424 4284259478
-0.34607357 0.036514726 -0.1345596 4284525725
-0.34706306 0.03890885 -0.13637879 4284329633
-0.35039568 0.042026635 -0.14234674 4283870889
-0.352373 0.044784252 -0.14591692 4283805356
-0.3534117 0.047279157 -0.14782597 4283870894
-0.35445848 0.049796425 -0.14975002 4284198577
-0.35405031 0.051845495 -0.14909726 4284461493
-0.3536438 0.053889841 -0.1484473 4284397237
-0.35275838 0.055759944 -0.14694852 4284200626
-0.35045943 0.057105549 -0.14294405 4283936684
-0.34866673 0.058600362 -0.13983573 4284131489
-0.34827989 0.060598288 -0.13921893 4286687365
-0.34743479 0.062413648 -0.13778941 4290622050
-0.34614131 0.064038374 -0.13556418 4292000338
-0.34667206 0.066380955 -0.13657404 4290098274
-0.34674808 0.068546392 -0.13677758 4286425221
-0.34728119 0.07090798 -0.13779216 4285374104
-0.35013646 0.074281611 -0.14292787 4289243022
-0.36782011 -0.052096114 -0.1744556 4286484309
-0.36517167 -0.049694322 -0.16982715 4285369435
-0.36047903 -0.04722074 -0.16156746 4285432414
-0.35645646 -0.044856161 -0.15449528 4285955156
-0.35403401 -0.042620268 -0.150263 4286088264
-0.35165864 -0.040424902 -0.1461132 4286352965
-0.34980583 -0.038279552 -0.14289051 4286746950
-0.3484529 -0.036170717 -0.14055519 4287076683
-0.34711552 -0.034083143 -0.13824682 4287078997
-0.34625626 -0.032015085 -0.13678767 4287207764
-0.34494415 -0.029965082 -0.13452291 4286810957
-0.34410131 -0.027926279 -0.13309197 4286020172
-0.34281373 -0.025912713 -0.13086966 4286017617
-0.3415406 -0.023918804 -0.12867239 4286214483
-0.34072316 -0.021924211 -0.12728511 4286413392
-0.33991185 -0.019941533 -0.12590833 4286613831
-0.33954343 -0.017943447 -0.12531936 4287000129
-0.33917654 -0.015949944 -0.12473282 4287711293
-0.33968362 -0.013891749 -0.12570207 4286141510
-0.33931664 -0.011900042 -0.12511538 4286346072
-0.33895105 -0.0099128494 -0.12453105 4286280023
-0.33729354 -0.0080656335 -0.12164564 4286411096
-0.33650857 -0.0061462019 -0.12031367 4286541399
-0.33572942 -0.0042378702 -0.1189916 4286672470
-0.33495596 -0.0023405261 -0.11767931 4287062867
-0.33418813 -0.00045398524 -0.1163767 4287779909
-0.33342594 0.001421807 -0.1150837 4288562243
-0.33308133 0.003351354 -0.11453477 4289414983
-0.3331503 0.0053446372 -0.11472304 4289481045
-0.33321935 0.0073407548 -0.1149116 4289741633
-0.33328849 0.0093396474 -0.11510041 4286201660
-0.33335775 0.011341345 -0.11528947 4284304200
-0.33384132 0.013428281 -0.11621778 4285959283
-0.33474398 0.015612155 -0.11789425 4284448618
-0.33565328 0.017814633 -0.1195831 4285042302
-0.33656922 0.020035906 -0.12128443 4284644452
-0.33749193 0.022276189 -0.12299834 4283722843
-0.33885306 0.024640199 -0.1254957 4286939493
-0.3402293 0.027033137 -0.12802082 4288445029
-0.34162086 0.0294555 -0.1305742 4286670948
-0.34258148 0.031788126 -0.1323586 4284518797
-0.34310099 0.034016971 -0.13335547 4284655770
-0.34452453 0.036514536 -0.13596812 4288066436
-0.34550714 0.038908824 -0.13779362 4288067462
-0.34928736 0.042168912 -0.14462049 4285312925
-0.3512589 0.044933055 -0.14821596 4283870378
-0.35229418 0.047433488 -0.1501386 4283870896
-0.35333756 0.049956396 -0.15207638 4286166711
-0.35292959 0.052009296 -0.15141889 4287678145
-0.35252336 0.05405743 -0.15076429 4286103483
-0.35163939 0.055930626 -0.14925475 4284461489
-0.34934559 0.05727737 -0.14522192 4283936431
-0.34709498 0.058601826 -0.14126509 4284065441
-0.3471702 0.060775388 -0.1414704 4287014272
-0.34632656 0.062593669 -0.14003082 4291736669
-0.34503573 0.064220548 -0.13778996 4292984139
-0.34556431 0.066568032 -0.13880688 4291934544
-0.34563938 0.068737701 -0.13901183 4289179506
-0.34617028 0.071104184 -0.14003353 4286816660
-0.36662245 -0.054371763 -0.17674421 4287400784
-0.36451888 -0.051984079 -0.17304993 4286548040
-0.36244982 -0.049632382 -0.16941628 4285891655
-0.35782394 -0.047169652 -0.16119808 4286020682
-0.35535786 -0.044886976 -0.15684967 4286674002
-0.35343453 -0.042665731 -0.15347317 4287395659
-0.3510547 -0.040461197 -0.14927688 4287334212
-0.34967759 -0.0383179 -0.14687797 4286747209
-0.34831649 -0.036196515 -0.1445071 4286549829
-0.34697115 -0.034096632 -0.14216371 4286747206
-0.34564129 -0.032017916 -0.13984741 4286814278
-0.34478667 -0.029954705 -0.13838342 4286880846
-0.3434819 -0.027913332 -0.13611092 4286944335
-0.34264362 -0.025879284 -0.13467522 4286415692
-0.34136325 -0.023874223 -0.13244528 4285626187
-0.34009728 -0.021888692 -0.13024046 4286151498
-0.33928424 -0.019898646 -0.1288486 4286745158
-0.3389146 -0.017893123 -0.12825298 4287194947
-0.33854643 -0.015892163 -0.12765981 4287776573
-0.33861566 -0.013861017 -0.12785262 4286601030
-0.33824888 -0.011865531 -0.12726182 4286346071
-0.33788359 -0.0098745916 -0.12667349 4286345814
-0.33622977 -0.0080241272 -0.12376811 4286280023
-0.33544624 -0.0061012316 -0.12242698 4286345558
-0.33466846 -0.0041894503 -0.12109579 4286476372
-0.33347842 -0.0023435312 -0.11902249 4286475864
-0.33271486 -0.00045685362 -0.11771598 4286672983
-0.33195689 0.0014191351 -0.11641917 4287126609
-0.3316139 0.0033488059 -0.11586879 4288300868
-0.33168185 0.0053422735 -0.11605801 4289020479
-0.33174989 0.0073385159 -0.1162475 4289217600
-0.33181801 0.0093375631 -0.11643728 4285153595
-0.33188626 0.011339408 -0.11662729 4285816138
-0.33236614 0.0134265 -0.11755896 4286155899
-0.3332625 0.015610554 -0.11924118 4284583290
-0.33416539 0.017813176 -0.12093586 4284911228
-0.33507493 0.020034578 -0.12264305 4284963909
-0.33641678 0.02237503 -0.12513007 4283715393
-0.33734298 0.024639167 -0.1268687 4286273618
-0.33870986 0.02703226 -0.12940235 4287844698
-0.33965328 0.029340284 -0.13117327 4285625714
-0.3406038 0.031668328 -0.13295759 4284260502
-0.34156141 0.034016594 -0.13475539 4285769365
-0.34252632 0.036385369 -0.13656689 4286949510
-0.34440511 0.039043192 -0.14002819 4287214457
-0.34817463 0.042311717 -0.14690314 4285904010
-0.3501403 0.045082442 -0.15052411 4284395686
-0.35117212 0.047588434 -0.15246035 4284264885
-0.35269716 0.050277546 -0.15528788 4288401860
-0.35228771 0.052337945 -0.15462275 4290046679
-0.35139832 0.054225665 -0.15309039 4287156170
-0.35051587 0.056101982 -0.15157014 4284657586
-0.34869644 0.057621587 -0.14835641 4284000943
-0.34598181 0.058775339 -0.14352389 4283998370
-0.34605604 0.060953155 -0.14373061 4285373579
-0.34475827 0.062595479 -0.14145713 4289309550
-0.34392577 0.064403437 -0.14002426 4292393041
-0.34445217 0.066755801 -0.14104831 4292329818
-0.34498063 0.069120079 -0.14207646 4290689913
-0.34505498 0.07130117 -0.1422835 4289570191
-0.36494988 -0.054379486 -0.17826413 4286874442
-0.36285895 -0.051991563 -0.17455839 4286218820
-0.36133176 -0.049674191 -0.17187154 4285956675
-0.35722846 -0.047234744 -0.16452149 4285956163
-0.35475734 -0.044942182 -0.16012366 4286217799
-0.35283008 -0.042711552 -0.15670894 4286412872
-0.3509331 -0.040513024 -0.15334803 4286147653
-0.34954759 -0.038356725 -0.1509123 4285296706
-0.34817827 -0.036222614 -0.14850518 4285103940
-0.34682485 -0.034110308 -0.14612612 4286023756
-0.34548715 -0.032019366 -0.14377472 4286287435
-0.34416476 -0.02994949 -0.14145046 4286550600
-0.34285754 -0.027900286 -0.13915288 4286617160
-0.34201741 -0.025858451 -0.13770133 4286815053
-0.34073475 -0.023845816 -0.13544694 4286877514
-0.33946648 -0.021852907 -0.13321804 4286810436
-0.33865172 -0.019855434 -0.13181093 4286742597
-0.33784309 -0.017869972 -0.1304145 4287324227
-0.33791146 -0.015833987 -0.13060871 4287319613
-0.33754349 -0.013830166 -0.13001136 4286734408
-0.33761188 -0.011792262 -0.13020575 4286345046
-0.33724535 -0.0097939465 -0.12961076 4286214229
-0.33601794 -0.0078916373 -0.12745267 4286082903
-0.33437979 -0.0060560675 -0.12454818 4286148952
-0.33360344 -0.0041408297 -0.12320784 4286280278
-0.33241597 -0.0022917115 -0.12112029 4286411093
-0.33165389 -0.00040164043 -0.11980488 4286345816
-0.33089736 0.001477638 -0.11849917 4286345050
-0.33014625 0.003346259 -0.11720302 4287126609
-0.33021319 0.0053398814 -0.11739319 4288103488
-0.33028021 0.0073362789 -0.11758363 4288760387
-0.3303473 0.0093354806 -0.11777434 4286268737
-0.3304145 0.011337481 -0.11796533 4287918161
-0.33089074 0.013424722 -0.11890034 4287537021
-0.33178073 0.015608926 -0.12058835 4285894781
-0.3326773 0.017811699 -0.12228884 4284118389
-0.33400011 0.020128874 -0.12476562 4283323980
-0.33491305 0.022373877 -0.12649731 4285817425
-0.33583272 0.024638167 -0.12824188 4287586398
-0.33719021 0.027031424 -0.13078411 4286274916
-0.33769274 0.02922548 -0.1317704 4284255630
-0.33863312 0.03154894 -0.13355459 4284197527
-0.33958066 0.033892605 -0.13535228 4287213947
-0.3409797 0.036385156 -0.13797323 4289836908
-0.34329867 0.039178055 -0.14227137 4289966452
-0.34705743 0.042455051 -0.14919475 4287081617
-0.34901711 0.045232397 -0.15284133 4284591527
-0.35052544 0.047899645 -0.15566635 4284462008
-0.3520515 0.050601214 -0.15852465 4288862672
-0.35164058 0.052669182 -0.15785173 4290639073
-0.35074911 0.054563046 -0.15630201 4287091405
-0.3498646 0.056445494 -0.15476453 4284657330
-0.3480421 0.057968456 -0.1515152 4283870125
-0.3453235 0.059122793 -0.14662959 4283671458
-0.34493747 0.061131593 -0.14599958 4283733394
-0.34364241 0.062776171 -0.14371009 4285241475
-0.34281147 0.064587019 -0.14226715 4287800686
-0.3433356 0.066944286 -0.14329834 4288654447
-0.34340873 0.069122449 -0.14350612 4288522891
-0.36166024 -0.054253273 -0.17683141 4286610503
-0.36013606 -0.051920127 -0.17412584 4286021187
-0.35810876 -0.049578153 -0.17050025 4285824067
-0.3561143 -0.047271021 -0.16693346 4285364289
-0.35415184 -0.044997796 -0.16342406 4284706623
-0.35222059 -0.042757735 -0.15997057 4284442688
-0.35031983 -0.04055002 -0.15657181 4284507970
-0.3489314 -0.038384926 -0.15410861 4284707147
-0.34755927 -0.03624218 -0.15167446 4284775766
-0.34620318 -0.03412142 -0.14926884 4284645210
-0.34486282 -0.032022242 -0.14689125 4284907093
-0.34353793 -0.029944269 -0.14454122 4285891148
-0.34222823 -0.027887167 -0.14221825 4286221896
-0.34138623 -0.025837485 -0.14075053 4286483778
-0.34010121 -0.023817228 -0.13847142 4286615105
-0.33883074 -0.021816853 -0.13621819 4286418244
-0.33801425 -0.019811932 -0.13479558 4286544710
-0.33720395 -0.017819088 -0.13338384 4287385662
-0.33727148 -0.015775345 -0.13357976 4287056702
-0.33690229 -0.013764033 -0.13297561 4286273351
-0.33696991 -0.011718443 -0.13317169 4286343505
-0.33660218 -0.0097127017 -0.13257 4286410326
-0.33580351 -0.0077577103 -0.13117824 4286411347
-0.3341569 -0.0059128464 -0.12823145 4286345300
-0.33295447 -0.0040398818 -0.12609813 4286344793
-0.33176517 -0.0021844234 -0.12398828 4286541911
-0.33058882 -0.00034626274 -0.12190151 4286279769
-0.32942522 0.001474926 -0.11983746 4286410583
-0.32908413 0.0034082551 -0.1192819 4286803795
-0.32874432 0.0053374907 -0.11872857 4287778885
-0.32881027 0.0073340428 -0.11891997 4288364093
-0.32887638 0.0093333926 -0.11911163 4287972417
-0.32894257 0.011335554 -0.11930355 4289100377
-0.32982287 0.013505666 -0.12099074 4288847993
-0.33070961 0.015694244 -0.12269027 4288583796
-0.33160284 0.017901456 -0.12440236 4285167718
-0.33250263 0.020127542 -0.12612714 4285490007
-0.33340907 0.022372706 -0.12786475 4287331432
-0.33432218 0.024637148 -0.12961529 4287717465
-0.33567032 0.02703055 -0.13216604 4285428589
-0.33616897 0.029224772 -0.13315588 4284062355
-0.33710268 0.031548407 -0.13494618 4286882702
-0.33804342 0.033892233 -0.13675006 4288325762
-0.33899125 0.036256466 -0.13856761 4287604611
-0.34218782 0.039313428 -0.14452323 4287606146
-0.34593564 0.042598926 -0.15149534 4286033296
-0.34788933 0.045382902 -0.15516771 4284394662
-0.34939292 0.048056398 -0.15801279 4284921276
-0.35091418 0.050764304 -0.16089146 4289257177
-0.35050353 0.05283615 -0.16021363 4290835429
-0.35009465 0.054903083 -0.15953876 4287418060
-0.34920809 0.056791663 -0.1579839 4284722866
-0.34691218 0.058143545 -0.15383193 4283804075
-0.34420016 0.059298281 -0.14891177 4283475109
-0.34427255 0.061488826 -0.14912178 4283275930
-0.34252214 0.062957525 -0.14597173 4283338894
-0.34124449 0.064588986 -0.14369227 4284256388
-0.34221461 0.067133479 -0.14555706 4285437313
-0.34228677 0.069315895 -0.14576627 4287275661
-0.36207137 -0.056669932 -0.18208544 4286738765
-0.36053082 -0.054305423 -0.17932573 4286084675
-0.3590093 -0.05196698 -0.17660028 4285691713
-0.35750654 -0.049654175 -0.17390852 4285032766
-0.35602215 -0.04736653 -0.17124981 4284242483
-0.35404751 -0.045078676 -0.16768548 4283452715
-0.35260484 -0.04284456 -0.16510189 4283058217
-0.35019222 -0.040602848 -0.16072701 4283188777
-0.34879526 -0.038424522 -0.15822577 4284041521
-0.34741476 -0.036268793 -0.15575418 4284569914
-0.3460505 -0.034135338 -0.15331168 4284378434
-0.34423342 -0.032025136 -0.15003203 4285295946
-0.342906 -0.029939003 -0.14765589 4286673746
-0.34159386 -0.027873918 -0.14530726 4287268429
-0.34029678 -0.025829459 -0.1429856 4286877769
-0.33901444 -0.0238053 -0.14069049 4286483267
-0.33818996 -0.021780526 -0.13924108 4286547779
-0.33693165 -0.019792305 -0.13698898 4287001158
-0.33699843 -0.017739816 -0.13718671 4288037693
-0.33662653 -0.015716296 -0.13657315 4288167995
-0.33669338 -0.013661925 -0.13677107 4287383101
-0.33676031 -0.011604724 -0.13696922 4286206532
-0.33638987 -0.0095878309 -0.13635807 4285947213
-0.33558646 -0.0076222583 -0.13494545 4286278480
-0.33393133 -0.00576807 -0.13195561 4286410067
-0.33272249 -0.0038854205 -0.12979108 4286278999
-0.33110937 -0.0020763909 -0.12687732 4286344278
-0.32993135 -0.00023201 -0.12476828 4286411094
-0.32876608 0.0015952685 -0.12268227 4286475860
-0.32801792 0.00347048 -0.1213684 4286411093
-0.32767838 0.0054032058 -0.12081134 4286996816
-0.32734016 0.0073318086 -0.12025651 4288037438
-0.32740521 0.009331313 -0.12044913 4288299843
-0.32747036 0.011333629 -0.12064201 4289033566
-0.3283444 0.013503921 -0.12233492 4289306744
-0.32922477 0.015692612 -0.12404026 4289373051
-0.33011159 0.017899975 -0.12575819 4286810228
-0.33142072 0.020222146 -0.12826033 4287399789
-0.33232382 0.022471903 -0.13000986 4288569692
-0.33323362 0.024741007 -0.13177246 4286535522
-0.33415017 0.027029706 -0.13354823 4284320654
-0.33464497 0.029224087 -0.1345416 4283737761
-0.33557197 0.031547882 -0.13633801 4285574547
-0.33650598 0.03389186 -0.13814802 4287017855
-0.33788568 0.036384732 -0.14078662 4286426750
-0.34152469 0.039585806 -0.14762387 4285377169
-0.34527561 0.042888265 -0.15467134 4284655517
-0.34675699 0.045534022 -0.15750334 4284263081
-0.34825575 0.04821375 -0.16036859 4285971388
-0.34977219 0.050928049 -0.16326775 4290241499
-0.34936181 0.053003766 -0.16258503 4291161828
-0.34895316 0.05507461 -0.16190529 4287416777
-0.347592 0.056792852 -0.15945357 4284723121
-0.34577769 0.058319345 -0.15615782 4283869356
-0.34307232 0.059474405 -0.15120292 4283409319
-0.34314373 0.061669305 -0.15141436 4283211425
-0.34139737 0.063139603 -0.14824212 4283144090
-0.34012252 0.064773262 -0.14594668 4283338899
-0.34108916 0.067323387 -0.14782448 4284519824
-0.3411603 0.06951005 -0.14803512 4287931534
-0.3603957 -0.056677878 -0.18360816 4285883979
-0.35993066 -0.054402638 -0.18282524 4284965951
-0.35840547 -0.052053813 -0.18006797 4284638265
-0.35689911 -0.049730815 -0.17734492 4284243000
-0.35592869 -0.047463205 -0.17561917 4283583538
-0.35394162 -0.045160536 -0.17199887 4283122218
-0.35198656 -0.042891826 -0.16843696 4282859042
-0.35006279 -0.040656347 -0.16493213 4282727715
-0.34816957 -0.038453232 -0.16148303 4283055916
-0.34678623 -0.036288727 -0.15898353 4283385140
-0.34541926 -0.034146689 -0.15651359 4283517495
-0.34359893 -0.032028053 -0.15319739 4283911991
-0.34180671 -0.029939113 -0.1499325 4284831548
-0.34049731 -0.027869884 -0.1475673 4285946688
-0.33965495 -0.025808258 -0.14607278 4286277442
-0.33837032 -0.023776392 -0.14375244 4285628226
-0.33710036 -0.021764621 -0.14145862 4286612554
-0.33584473 -0.01977261 -0.13919082 4287258951
-0.33679032 -0.017659681 -0.14103268 4288103228
-0.33685654 -0.015592593 -0.14123276 4288299581
-0.33648187 -0.013558665 -0.14060946 4288168252
-0.33654812 -0.011489718 -0.14080974 4287841343
-0.33617491 -0.0094615538 -0.14018892 4287383104
-0.33580318 -0.0074380971 -0.13957071 4286271811
-0.33413306 -0.0055713528 -0.1365253 4285881931
-0.33291313 -0.0036757709 -0.13432048 4286147154
-0.3312858 -0.0018548638 -0.13135315 4286345046
-0.32968223 -5.7618923e-05 -0.12842925 4286476117
-0.3281019 0.001716483 -0.12554783 4286410324
-0.32735243 0.0035981867 -0.12421989 4286410839
-0.32660842 0.0054691648 -0.12290175 4286671956
-0.32627049 0.0074012498 -0.12234317 4287777347
-0.32633463 0.0094044851 -0.12253707 4288365377
-0.32639888 0.011410533 -0.12273125 4288767313
-0.32726955 0.013585149 -0.12443562 4289371252
-0.32814661 0.015778238 -0.12615262 4288847222
-0.3290301 0.017990064 -0.12788226 4288122731
-0.33033466 0.020317106 -0.13040149 4288440415
-0.33123437 0.022571461 -0.13216299 4287846229
-0.33171988 0.024740014 -0.1331488 4285493099
-0.3322072 0.02691938 -0.13413845 4283603356
-0.3331207 0.029223373 -0.13592753 4283345066
-0.33404106 0.03154736 -0.13773003 4283934886
-0.3349683 0.033891499 -0.13954622 4284458912
-0.33677572 0.036513474 -0.1430141 4284393117
-0.34085628 0.039860226 -0.15074824 4284197028
-0.34414345 0.043033812 -0.15699619 4284130983
-0.34514949 0.045534305 -0.15896508 4284197550
-0.34663776 0.048214242 -0.16183993 4287547331
-0.34766349 0.050765608 -0.16384752 4292013536
-0.34725687 0.052837789 -0.16316608 4291291359
-0.346852 0.054905083 -0.1624876 4287087041
-0.34597573 0.056794029 -0.16092344 4284460463
-0.34417266 0.05832069 -0.15761749 4283672234
-0.34193993 0.059651233 -0.15350296 4283409319
-0.34155473 0.061670952 -0.15285948 4283342499
-0.34026814 0.063322335 -0.15052132 4283276447
-0.33944181 0.065141827 -0.14904775 4283275161
-0.33995923 0.067514017 -0.15010065 4284521107
-0.34002939 0.069704987 -0.15031275 4289177739
-0.35925481 -0.05673565 -0.18613677 4285424975
-0.35879007 -0.054455414 -0.18534802 4283913537
-0.35726768 -0.052101266 -0.18257049 4283715635
-0.35628644 -0.049808085 -0.1808098 4283649585
-0.35479516 -0.047500465 -0.17808907 4283188528
-0.35281217 -0.045192648 -0.17444241 4282859306
-0.35136312 -0.042939506 -0.17179918 4282661921
-0.34943554 -0.040694535 -0.16825452 4282399780
-0.34753859 -0.038482204 -0.16476633 4282400558
-0.34615248 -0.036308859 -0.16223855 4283190330
-0.34430745 -0.034155339 -0.15884583 4283387711
-0.34249115 -0.032032356 -0.1555061 4282794545
-0.34116396 -0.029933797 -0.1530865 4283056425
-0.33985215 -0.027856518 -0.15069503 4283845429
-0.33855549 -0.025800126 -0.14833124 4284638274
-0.33772111 -0.02374726 -0.14683792 4284774732
-0.33644894 -0.02172789 -0.14451891 4285691476
-0.33519119 -0.019728463 -0.14222629 4287058510
-0.33613688 -0.017607199 -0.14408755 4288234812
-0.33664519 -0.015499662 -0.1451247 4288562495
-0.33671078 -0.013417787 -0.1453272 4288365373
-0.33633327 -0.01137341 -0.14469391 4288430655
-0.33639893 -0.009289721 -0.14489658 4288299582
-0.33602291 -0.0072511835 -0.14426583 4287775806
-0.33520985 -0.0052690418 -0.14280994 4287253055
-0.3331064 -0.0034629966 -0.13891745 4286599492
-0.33146459 -0.0016300384 -0.13589525 4286013003
-0.32943019 0.00011868621 -0.13213062 4286211664
-0.32784203 0.0019013199 -0.1292076 4286475350
-0.32668191 0.0037267879 -0.1270922 4286410328
-0.32593662 0.0056041833 -0.12575991 4286540630
-0.32519674 0.0074709356 -0.12443747 4287125071
-0.32525995 0.0094779246 -0.1246327 4288102976
-0.32532328 0.011487725 -0.1248282 4288433997
-0.3257879 0.013583343 -0.12578265 4289038442
-0.32665861 0.015776604 -0.12750547 4288779376
-0.32753566 0.017988581 -0.12924097 4288116065
-0.32841918 0.020219488 -0.13098934 4287977808
-0.32930925 0.022469576 -0.13275076 4286208605
-0.32937413 0.024529612 -0.13295114 4284450951
-0.32985434 0.026700828 -0.13393782 4283408803
-0.33075482 0.028995736 -0.13572058 4283213738
-0.33166203 0.031310469 -0.13751675 4283410346
-0.33300239 0.03376795 -0.14013402 4283540905
-0.33479071 0.036384311 -0.14360087 4283606440
-0.33972952 0.039998189 -0.15303826 4283672490
-0.3420811 0.042888496 -0.1575762 4283869099
-0.34354171 0.045534629 -0.16042709 4284329138
-0.34454829 0.048057836 -0.16241828 4288204229
-0.34556276 0.050603822 -0.16442527 4292604893
-0.34515992 0.052672483 -0.16374511 4291159258
-0.34428895 0.054567065 -0.16217683 4286626234
-0.34342477 0.056450207 -0.16062096 4284328106
-0.34210628 0.058147594 -0.1582025 4283933609
-0.33989629 0.059477419 -0.15409131 4283738282
-0.33996543 0.061672628 -0.15430485 4283407776
-0.33824077 0.063143261 -0.15111291 4283276190
-0.33786523 0.065143853 -0.15048161 4283406231
-0.33882478 0.067705333 -0.15238568 4284717199
-0.35757518 -0.056743573 -0.18766309 4285952086
-0.35658324 -0.054418102 -0.18586718 4283912771
-0.35559961 -0.052108772 -0.18408634 4283451444
-0.35462412 -0.04981545 -0.18232043 4283188013
-0.35365677 -0.047537848 -0.18056937 4282859050
-0.35167783 -0.045224886 -0.17689614 4282595878
-0.34973094 -0.042946201 -0.17328249 4282333217
-0.34781533 -0.040701006 -0.16972697 4282071075
-0.34593016 -0.038488485 -0.16622812 4282005031
-0.34503204 -0.036322005 -0.16460438 4282728235
-0.34319106 -0.034163993 -0.16118743 4282991149
-0.34137881 -0.03203667 -0.15782398 4282596134
-0.33959466 -0.029939272 -0.15451279 4282530594
-0.33874545 -0.027852427 -0.15297891 4284039725
-0.33790281 -0.025778688 -0.15145707 4286076217
-0.33706671 -0.02371791 -0.14994718 4284769342
-0.33579236 -0.021690877 -0.14760263 4285359172
-0.33497229 -0.019659279 -0.1461221 4287057218
-0.33592144 -0.01752555 -0.14800973 4287906874
-0.33643118 -0.015405636 -0.14906123 4288300349
-0.33649606 -0.013311757 -0.14926589 4288168765
-0.33656102 -0.01121498 -0.14947084 4288365119
-0.33662611 -0.0091152424 -0.14967604 4288365374
-0.33624575 -0.0070614014 -0.14903247 4288299326
-0.3354246 -0.0050648614 -0.14754853 4288168509
-0.33330232 -0.0032470049 -0.14358349 4288037949
-0.33121952 -0.0014600228 -0.13969231 4287514432
-0.32959366 0.0003578052 -0.13667126 4286925633
-0.32757908 0.0020881912 -0.1329076 4286076748
-0.32600629 0.0038562929 -0.12998553 4285947472
-0.32485726 0.0056708558 -0.12787098 4286408786
-0.32411888 0.0075408802 -0.1265395 4286668368
-0.32378283 0.0094758365 -0.12597561 4287775550
-0.32384512 0.011485793 -0.12617205 4288496709
-0.32430607 0.013581566 -0.1271299 4288898903
-0.32476881 0.015687734 -0.12809151 4288375901
-0.32563642 0.017895542 -0.12982696 4288110160
-0.3265104 0.020122232 -0.13157529 4287057235
-0.32657379 0.022168383 -0.13177529 4285299319
-0.32745457 0.024424473 -0.13353762 4284327327
-0.32751837 0.026483839 -0.13373889 4283541416
-0.32840598 0.028769737 -0.13551536 4283278761
-0.32930017 0.031075355 -0.13730517 4283278505
-0.33062148 0.033522639 -0.13991265 4283409576
-0.33195758 0.03600011 -0.14254943 4283409832
-0.33725327 0.039722633 -0.15276378 4283475881
-0.3391175 0.042455684 -0.15641473 4283672747
-0.3405515 0.045084219 -0.15924357 4284263860
-0.34200224 0.047746353 -0.16210546 4287876808
-0.34253541 0.050120875 -0.16321149 4291490782
-0.3421396 0.052178651 -0.16253865 4289780947
-0.34174538 0.054231629 -0.16186871 4285771954
-0.34043533 0.055938791 -0.15944381 4283801763
-0.33914033 0.057629596 -0.15704694 4283734176
-0.33741406 0.0591303 -0.15382271 4283933093
-0.33703735 0.06113993 -0.15318432 4283539101
-0.33622083 0.062964864 -0.15170251 4283340954
-0.33628842 0.065145843 -0.15191567 4283733138
-0.3372409 0.067707524 -0.15382621 4285765258
-0.35490915 -0.054425813 -0.18738848 4284832838
-0.35393131 -0.052116308 -0.18560241 4283583034
-0.35296154 -0.049822778 -0.18383133 4282991407
-0.35199988 -0.047545001 -0.1820751 4282859561
-0.35003328 -0.045231808 -0.17839068 4282727209
-0.34809855 -0.042952895 -0.174766 4282530857
-0.34619486 -0.040707503 -0.17119966 4282400557
-0.34432143 -0.038494762 -0.16769014 4282334250
-0.34342858 -0.036328118 -0.16606164 4282266657
-0.34159908 -0.03416989 -0.1626343 4282266141
-0.34026191 -0.032041006 -0.16015115 4282266396
-0.33848187 -0.029939348 -0.15681653 4282398496
-0.33763421 -0.027848346 -0.15527181 4283710506
-0.33679315 -0.025770482 -0.15373929 4285153840
-0.33595863 -0.02370563 -0.15221874 4283779373
-0.33513048 -0.021653609 -0.15071006 4284436277
-0.33563945 -0.019539163 -0.15177119 4286661433
-0.33570331 -0.017442957 -0.15197705 4287578681
-0.3357673 -0.015343822 -0.1521832 4287973180
-0.33627865 -0.013204536 -0.15325001 4287972668
-0.33634293 -0.01109554 -0.15345711 4288169277
-0.33640727 -0.008983627 -0.15366451 4288169279
-0.33647174 -0.0068687531 -0.15387219 4288234559
-0.3356424 -0.0048575355 -0.15235949 4288365116
-0.33306479 -0.0030837322 -0.14748044 4288496445
-0.33139968 -0.0012293264 -0.14435665 4288299069
-0.32933739 0.00053870265 -0.14046682 4287971644
-0.32690015 0.002212988 -0.13585328 4287317570
-0.32532555 0.0039867735 -0.13290012 4287055683
-0.324175 0.0058073471 -0.13076305 4286140741
-0.32303694 0.0076110731 -0.12864934 4285945159
-0.32270119 0.0095495302 -0.12808156 4288102975
-0.32236674 0.011483869 -0.12751612 4289482568
-0.32242808 0.013496792 -0.1277138 4289418062
-0.32328302 0.015686108 -0.12944235 4288827982
-0.32374379 0.017802846 -0.13041109 4288236869
-0.32420626 0.019930096 -0.1313836 4286334803
-0.32467055 0.022067936 -0.13235992 4284778116
-0.32513657 0.024216361 -0.13334005 4283869609
-0.32560438 0.026375504 -0.13432403 4283541675
-0.32607397 0.028545413 -0.13531189 4283409575
-0.32695532 0.030841919 -0.13709538 4283343783
-0.32825783 0.033279128 -0.13969314 4283278248
-0.32957482 0.035746273 -0.14231996 4283278760
-0.33523577 0.039585616 -0.15334246 4283410088
-0.33663279 0.04216991 -0.15612762 4283541418
-0.33759531 0.044638999 -0.1580738 4284066736
-0.33901954 0.047283415 -0.16091353 4286167996
-0.33954275 0.049643517 -0.16201194 4288401354
-0.33915383 0.05169053 -0.16134633 4287152576
-0.33876646 0.053732824 -0.16068356 4284721322
-0.33658573 0.055098638 -0.1565503 4283473311
-0.33576486 0.056947634 -0.15504751 4283141780
-0.33451223 0.058613736 -0.15270829 4283469460
-0.33414197 0.060613193 -0.15207663 4283471768
-0.33333975 0.062430054 -0.15060832 4283471509
-0.3329739 0.064417355 -0.14998472 4284191373
-0.33521649 0.067520551 -0.15441412 4287535492
-0.3517465 -0.052083861 -0.18611929 4284306753
-0.3507866 -0.049795002 -0.1843508 4283320885
-0.34983462 -0.047521856 -0.18259706 4283188784
-0.34788853 -0.045213372 -0.17891696 4283320114
-0.34646586 -0.042959619 -0.17624979 4283254325
-0.34457418 -0.040714003 -0.17267257 4283255610
-0.34271249 -0.038501069 -0.16915238 4283058229
-0.34182489 -0.036334198 -0.16751915 4282530857
-0.34000686 -0.034175787 -0.16408136 4282070048
-0.33867794 -0.032046702 -0.16159077 4281938460
-0.33736449 -0.029939458 -0.15912943 4282200607
-0.33651847 -0.027844252 -0.15757382 4282529315
-0.33567899 -0.025762238 -0.15603048 4282857510
-0.33484602 -0.023693297 -0.15449923 4282727208
-0.33446339 -0.021616027 -0.1538415 4283645486
-0.33497187 -0.019493239 -0.15491365 4285348143
-0.33503491 -0.017388869 -0.15512131 4287052595
-0.33554566 -0.015248024 -0.15619861 4287710522
-0.33605847 -0.013096049 -0.15728028 4287776828
-0.33612204 -0.010974714 -0.15748961 4287973179
-0.33618566 -0.0088504618 -0.15769923 4288039230
-0.33624938 -0.0067232419 -0.15790913 4288104510
-0.33541507 -0.0047008623 -0.15637326 4288300604
-0.33282432 -0.0029185996 -0.15142186 4288496701
-0.33072042 -0.0011142534 -0.14741537 4288365118
-0.32865572 0.00065941084 -0.14348361 4288364092
-0.32621601 0.0023387016 -0.13882084 4288233021
-0.32463956 0.0041181995 -0.13583615 4287905854
-0.32268614 0.0058049392 -0.1321166 4286529084
-0.32155505 0.0076088295 -0.12999655 4286268736
-0.32122093 0.0095474478 -0.1294273 4288955713
-0.32049635 0.011402836 -0.12809753 4290071367
-0.32094842 0.013495017 -0.12905906 4289744458
-0.32140219 0.015597558 -0.13002427 4289419089
-0.32185769 0.017710486 -0.13099332 4288825926
-0.32191849 0.019739339 -0.1311935 4286138450
-0.3227739 0.021967847 -0.13294266 4284253057
-0.32283506 0.024009759 -0.13314414 4283539874
-0.32329598 0.026160868 -0.1341252 4283475624
-0.32416129 0.028433492 -0.13589539 4283475878
-0.32462734 0.030610222 -0.13688736 4283409830
-0.32591122 0.033037368 -0.13947548 4283343784
-0.32679591 0.03536908 -0.14128564 4283409576
-0.33149275 0.038908411 -0.15053703 4283409833
-0.33285439 0.041464701 -0.15328114 4283475371
-0.33379239 0.043907959 -0.1551992 4283803308
-0.33562461 0.046674196 -0.15886435 4284590509
-0.33613631 0.04901531 -0.15995154 4285114799
-0.33398733 0.050414559 -0.15584123 4284589740
-0.3340525 0.052589606 -0.15605584 4283802533
-0.3328082 0.054274287 -0.15371136 4283408032
-0.33200809 0.056109201 -0.1522343 4283143061
-0.33121404 0.057933498 -0.15076855 4283074699
-0.33127874 0.060092371 -0.15098156 4283075216
-0.33049053 0.061901219 -0.14952657 4283536530
-0.33098096 0.064238451 -0.15057242 4284715399
-0.34957042 -0.052051552 -0.18663429 4285424972
-0.3486203 -0.049767371 -0.18486837 4283846204
-0.34767798 -0.047498804 -0.18311717 4283583029
-0.34624678 -0.045220274 -0.18040894 4283846457
-0.34483296 -0.042966306 -0.17773376 4283845952
-0.34295321 -0.040720496 -0.17414571 4283779903
-0.34110329 -0.038507342 -0.17061487 4283648571
-0.34022096 -0.036340311 -0.16897684 4283188533
-0.33887911 -0.034184523 -0.16643853 4282597420
-0.33755308 -0.032051064 -0.16393028 4282268196
-0.33578843 -0.029944953 -0.16056189 4282135584
-0.33539814 -0.027840106 -0.15988493 4281807133
-0.33500946 -0.025740486 -0.15921088 4281873184
-0.33417481 -0.023663506 -0.15766251 4282398246
-0.33379087 -0.021578185 -0.15699719 4283054120
-0.33385289 -0.019472498 -0.15720594 4283840039
-0.33436117 -0.017334368 -0.15829 4285805353
-0.33442345 -0.015218779 -0.15849976 4287184693
-0.33493397 -0.013062405 -0.15958898 4287514170
-0.33499655 -0.010936848 -0.1597997 4287579193
-0.33505923 -0.0088083306 -0.16001073 4288103483
-0.33512199 -0.0066768224 -0.16022205 4288104507
-0.3347362 -0.0045965957 -0.15955286 4288104253
-0.33435199 -0.0025213731 -0.15888652 4288169278
-0.33003581 -0.00099831249 -0.15049733 4288234814
-0.32796872 0.00078104087 -0.14652313 4288299068
-0.32552654 0.0024653494 -0.14181048 4288233275
-0.32394835 0.0042505977 -0.13879396 4287774269
-0.32199305 0.0059423749 -0.13503499 4287184955
-0.32086062 0.0077521983 -0.13289244 4287578177
-0.32013229 0.0096213846 -0.1315437 4289612358
-0.31940925 0.011479989 -0.13020492 4289807171
-0.31946856 0.01349325 -0.1304045 4289284164
-0.31952789 0.015509295 -0.13060439 4289417035
-0.31997818 0.017618455 -0.13157363 4289679690
-0.32003781 0.019643819 -0.13177443 4287318865
-0.32049 0.021769919 -0.13274814 4284577398
-0.32094389 0.023906508 -0.13372561 4283472023
-0.32100397 0.025947781 -0.13392802 4283409316
-0.32185683 0.028211575 -0.13569206 4283410087
-0.32231593 0.030380169 -0.13668102 4283344807
-0.32317838 0.032678258 -0.13846532 4283409832
-0.32445335 0.035119873 -0.14106335 4283540906
-0.32740059 0.038112327 -0.14695913 4283606187
-0.32830143 0.040499397 -0.14882229 4283605931
-0.32878581 0.04276647 -0.14986482 4283605929
-0.32969704 0.045190379 -0.15174991 4283737256
-0.32976019 0.047335096 -0.15196255 4283737513
-0.33025029 0.0496368 -0.15301771 4283605927
-0.32946143 0.051476233 -0.15154916 4283343011
-0.32910082 0.053465258 -0.15092553 4283277218
-0.32874167 0.055449959 -0.15030451 4283210397
-0.32796448 0.057263326 -0.14885779 4283076758
-0.32844713 0.059577353 -0.14989892 4283009933
-0.32725608 0.06120459 -0.14763403 4283666315
-0.32899517 0.064060181 -0.15115815 4285172351
-0.34740305 -0.052019373 -0.18714741 4286477143
-0.34646258 -0.049739819 -0.18538402 4284438853
-0.34552985 -0.047475841 -0.18363535 4284108603
-0.3441135 -0.04520189 -0.18093053 4283651135
-0.34271431 -0.042952437 -0.17825861 4283847238
-0.34133199 -0.040726993 -0.17561908 4283977286
-0.33949384 -0.038513616 -0.17207757 4284107840
-0.33861676 -0.036346387 -0.1704348 4283845693
-0.33728325 -0.034190428 -0.16788891 4283123770
-0.33596551 -0.03205676 -0.16537318 4282860337
-0.33511603 -0.029939637 -0.16378288 4282333734
-0.33427325 -0.027835978 -0.16220522 4281610014
-0.33388489 -0.025732137 -0.16152638 4281609759
-0.33305186 -0.023651052 -0.15996711 4282200866
-0.33355933 -0.021518406 -0.16106114 4282661156
-0.33317408 -0.019426083 -0.16038796 4282923047
-0.33368194 -0.017279439 -0.16148338 4284297509
-0.33374339 -0.015155515 -0.16169496 4286396462
-0.33425349 -0.012990512 -0.16279559 4286988087
-0.33386654 -0.010898807 -0.16211896 4287315513
-0.33392823 -0.008766016 -0.16233142 4288233274
-0.33399004 -0.0066302498 -0.16254416 4288365368
-0.33360454 -0.0045459415 -0.1618702 4288037691
-0.33322069 -0.0024666616 -0.16119914 4287907134
-0.32934579 -0.00088149228 -0.15360281 4288038717
-0.32727635 0.00090359914 -0.14958563 4288103996
-0.32483178 0.0025929399 -0.14482251 4287906874
-0.32284567 0.0043158568 -0.14096752 4287512380
-0.32089576 0.0060102781 -0.13718297 4287447868
-0.31976619 0.0078231599 -0.13502586 4288955716
-0.31903949 0.0096956063 -0.13366793 4289546311
-0.31831804 0.011557437 -0.13232003 4288954690
-0.31798843 0.013491448 -0.13175017 4288495424
-0.31804678 0.015507685 -0.131951 4288954433
-0.31810516 0.017526755 -0.13215214 4289744713
-0.31816366 0.019548647 -0.13235354 4288826703
-0.31861061 0.021670882 -0.13332744 4285622377
-0.31866938 0.02370213 -0.13352978 4283600270
-0.31872821 0.025736263 -0.13373239 4283342496
-0.31956875 0.027991286 -0.13549039 4283343526
-0.320021 0.030151773 -0.13647641 4283344039
-0.32087094 0.032440871 -0.13825445 4283409833
-0.32172716 0.03474956 -0.14004573 4283934636
-0.3225897 0.037078019 -0.14185034 4284328622
-0.32305363 0.039294556 -0.14286181 4284065452
-0.32311413 0.041386455 -0.14307021 4283605414
-0.32317474 0.043481287 -0.14327887 4283605411
-0.32283148 0.045436233 -0.14268291 4283998881
-0.32410866 0.04797503 -0.14531648 4284130205
-0.32376266 0.049934871 -0.14471525 4283735962
-0.32423091 0.052201048 -0.14573745 4283342239
-0.32388484 0.054159153 -0.14513603 4283144862
-0.32394609 0.056275807 -0.14534688 4283209371
-0.32400739 0.058395457 -0.14555803 4283339925
-0.32488564 0.060861025 -0.14739951 4284189574
-0.3270165 0.063882567 -0.15174191 4285165164
-0.34431347 -0.049712412 -0.18589784 4286082136
-0.34339023 -0.047452934 -0.18415163 4284503109
-0.34247461 -0.045208812 -0.18241993 4283782722
-0.34108418 -0.042959142 -0.17974009 4284044869
-0.33971053 -0.04073349 -0.1770927 4284307525
-0.33835334 -0.038531419 -0.17447715 4284570435
-0.33747789 -0.03635966 -0.17282261 4283913539
-0.33614746 -0.034199208 -0.17025864 4283256131
-0.33528942 -0.032059856 -0.16863745 4283123260
-0.33398488 -0.029939711 -0.16612354 4282465584
-0.33314374 -0.027831832 -0.16453475 4281872932
-0.33275574 -0.025723755 -0.16385107 4281740319
-0.33192438 -0.023638517 -0.16228084 4282069278
-0.33287632 -0.021479815 -0.1642758 4282661412
-0.33248985 -0.019379307 -0.16359484 4282595371
-0.33255023 -0.017254088 -0.16380754 4283314213
-0.33305782 -0.015091765 -0.16491513 4285215014
-0.3331185 -0.012956504 -0.16512883 4286397236
-0.33317924 -0.010818251 -0.16534284 4287446842
-0.33279261 -0.0087235579 -0.16466127 4288234045
-0.33285341 -0.006583503 -0.16487545 4288364601
-0.3324683 -0.0044950899 -0.16419673 4288102458
-0.33164209 -0.0024700523 -0.16263415 4287841083
-0.32865033 -0.00076381752 -0.15673207 4287776059
-0.326157 0.00096372562 -0.15182662 4287777084
-0.32413161 0.0027214435 -0.1478571 4287711036
-0.32254994 0.0045182961 -0.14477566 4287513917
-0.32019189 0.006149258 -0.14013623 4287447869
-0.31906101 0.0079681147 -0.13795619 4289218113
-0.31833318 0.0098469704 -0.13658376 4288889667
-0.31722265 0.011635171 -0.13444304 4288101951
-0.3168934 0.013572669 -0.13386923 4287839807
-0.31656539 0.015506069 -0.13329785 4288364095
-0.31662276 0.017525272 -0.13349992 4288955972
-0.31629598 0.019453816 -0.13293076 4289153354
-0.31673774 0.021572234 -0.13390495 4287060316
-0.3164109 0.023499219 -0.13333562 4284383106
-0.31646851 0.025526222 -0.13353847 4283866267
-0.31729683 0.027772553 -0.13529037 4283868836
-0.31774235 0.029925061 -0.13627349 4283409318
-0.31818953 0.032088216 -0.13726042 4283343528
-0.31903031 0.034383234 -0.13903937 4284458923
-0.31869692 0.036321852 -0.13845733 4285706675
-0.31914768 0.038513158 -0.1394527 4285182130
-0.31881419 0.040450174 -0.13887051 4283867558
-0.31926534 0.042654809 -0.13986719 4283932059
-0.31932431 0.044730026 -0.14007486 4285374349
-0.32017279 0.047096927 -0.14187224 4286685820
-0.31983659 0.049037214 -0.14128476 4286095486
-0.31989589 0.051125057 -0.14149372 4284324750
-0.32074827 0.053528443 -0.14330041 4283144346
-0.31962037 0.055150513 -0.14111777 4283209368
-0.32126662 0.057899114 -0.14452519 4283601551
-0.3225323 0.06051993 -0.14716686 4285172088
-0.32463244 0.063527361 -0.15149215 4285556051
-0.34125906 -0.047430191 -0.1846661 4285886037
-0.34035271 -0.045190487 -0.1829368 4284307523
-0.33945382 -0.042965844 -0.18122174 4284175935
-0.33808884 -0.04073998 -0.17856652 4284175683
-0.337208 -0.038549263 -0.1768865 4284438855
-0.33633429 -0.036372982 -0.17522015 4284374088
-0.33500686 -0.034208022 -0.17263795 4283915593
-0.33415052 -0.032064263 -0.17100526 4283454020
-0.33284903 -0.029939814 -0.1684736 4283057209
-0.33245817 -0.027818099 -0.16777894 4282726955
-0.33206889 -0.025701707 -0.1670873 4282330911
-0.33123589 -0.023608278 -0.16549946 4282265371
-0.33218774 -0.021440921 -0.16751574 4282726692
-0.33224729 -0.01930609 -0.16773039 4282727213
-0.33185956 -0.017198527 -0.16704139 4282855461
-0.33191916 -0.015061901 -0.16725624 4284100640
-0.33197886 -0.012922321 -0.16747136 4286266162
-0.33159256 -0.010822334 -0.16678509 4287711036
-0.33165231 -0.0086809453 -0.16700041 4287972925
-0.3312676 -0.0065872422 -0.16631697 4288037691
-0.33088449 -0.0044986564 -0.16563648 4288036923
-0.33006325 -0.0024734342 -0.16406938 4287905336
-0.32751948 -0.00070622354 -0.15901566 4287840569
-0.3254534 0.0010876578 -0.15492682 4287776572
-0.32342592 0.0028509442 -0.15091458 4287841853
-0.32225063 0.0047230152 -0.14862639 4287645502
-0.32028261 0.0064326953 -0.14473167 4287449661
-0.31874546 0.0081886472 -0.14170828 4288365629
-0.31801376 0.010077108 -0.1403157 4288037951
-0.3168979 0.011873911 -0.13814409 4287709502
-0.3161796 0.013737734 -0.13677745 4287709759
-0.31585065 0.015677948 -0.13619968 4288102460
-0.31552294 0.017614039 -0.13562427 4288430399
-0.31481495 0.019452486 -0.13427728 4288889410
-0.31525302 0.021571085 -0.13525487 4288432466
-0.31454736 0.023397805 -0.13391215 4285624437
-0.31460381 0.025421349 -0.13411561 4284783254
-0.31542298 0.027663434 -0.13586746 4285181864
-0.31547979 0.029699948 -0.13607223 4284196518
-0.31592023 0.031855084 -0.1370562 4283408035
-0.31597731 0.033901036 -0.13726193 4283671209
-0.31603447 0.035949875 -0.13746794 4286360504
-0.31609172 0.038001616 -0.13767423 4287541950
-0.31576505 0.039925825 -0.13710044 4284851883
-0.31620643 0.042113837 -0.13808772 4284848528
-0.31587973 0.044036511 -0.13751377 4288588142
-0.31593719 0.046096221 -0.13772088 4291475276
-0.3163791 0.048304092 -0.13871014 4291145806
-0.31682271 0.050522856 -0.13970333 4288258411
-0.31611007 0.052292954 -0.13834396 4284060049
-0.3173261 0.05483523 -0.14090978 4283142035
-0.3193433 0.057735913 -0.14510778 4284190090
-0.32139757 0.060692851 -0.1493831 4287399535
-0.32390112 0.06388656 -0.15457527 4286476122
-0.33823919 -0.045172233 -0.18345182 4286018133
-0.33734941 -0.042951956 -0.18173917 4284438853
-0.33693695 -0.040762518 -0.18099767 4284174911
-0.33559141 -0.038555589 -0.17835569 4283848260
-0.33518589 -0.036386356 -0.17762746 4284045895
-0.33432087 -0.034219798 -0.17596278 4284374342
-0.33346277 -0.032067373 -0.17431156 4284175939
-0.3326115 -0.029928932 -0.17267361 4283715133
-0.33221772 -0.027794588 -0.17196766 4283188531
-0.33137643 -0.025679464 -0.17034909 4282595623
-0.33098751 -0.023559986 -0.1696524 4282266144
-0.33149359 -0.021401694 -0.17078121 4282595366
-0.33110458 -0.019284656 -0.17008428 4282859308
-0.33071715 -0.017172864 -0.16939038 4282923044
-0.33077577 -0.015031942 -0.16960666 4283839524
-0.33083448 -0.012888038 -0.16982321 4287053106
-0.33044863 -0.010783845 -0.1691321 4287973179
-0.3300643 -0.0086848568 -0.1684439 4287907387
-0.33012304 -0.0065403138 -0.16866054 4287907389
-0.3293004 -0.004502221 -0.16707645 4287906878
-0.32848421 -0.0024768219 -0.16550481 4288037436
-0.32724261 -0.00052569865 -0.16306306 4288233274
-0.3243238 0.0011484534 -0.15719102 4288037693
-0.32271478 0.0029814108 -0.15399517 4287907389
-0.32112974 0.0047899755 -0.15084718 4287907901
-0.31956822 0.0065747774 -0.14774592 4287647292
-0.31842622 0.0084116291 -0.14550193 4287776316
-0.31769061 0.010309764 -0.14408882 4287842110
-0.31617978 0.012033885 -0.1410881 4287907647
-0.31662533 0.014158435 -0.14209212 4287842110
-0.31551614 0.015938967 -0.13991243 4288037692
-0.31480193 0.017794015 -0.13854094 4288168254
-0.3140929 0.019638566 -0.13717957 4288365120
-0.31376806 0.021569943 -0.13660502 4288562503
-0.3134445 0.023497235 -0.13603278 4286407265
-0.31349999 0.025524547 -0.13623759 4284385676
-0.31393489 0.027662756 -0.13722052 4286031016
-0.31399065 0.029699419 -0.13742627 4285833896
-0.31404653 0.031738989 -0.13763228 4283997089
-0.31410244 0.033781435 -0.13783862 4283407777
-0.31377873 0.035704099 -0.13726591 4284655276
-0.3138347 0.037748653 -0.13747244 4286362814
-0.31313497 0.039537542 -0.13612753 4285967541
-0.3135682 0.041713316 -0.13710874 4285962887
-0.31324694 0.043626551 -0.13654059 4289900647
-0.31330302 0.04567543 -0.13674757 4292393546
-0.3133592 0.047727201 -0.13695484 4292391235
-0.31379318 0.049929228 -0.13793869 4290357852
-0.31422877 0.052142095 -0.13892648 4285372806
-0.31581616 0.054836653 -0.14228296 4283534733
-0.31781855 0.057737503 -0.14649445 4286090371
-0.32025844 0.060866389 -0.15160777 4289241974
-0.32275283 0.064068139 -0.15683542 4288184674
-0.32828236 0.068679623 -0.16831163 4286284399
-0.33619231 -0.042979218 -0.1841858 4286409043
-0.3353115 -0.040769022 -0.1824749 4284635718
-0.33490294 -0.03858519 -0.18173482 4283913031
-0.33403265 -0.036399782 -0.18004455 4284372804
-0.3331694 -0.034228705 -0.17836802 4284438589
-0.33276933 -0.032070532 -0.17764425 4284437564
-0.33237094 -0.029917924 -0.17692368 4283977021
-0.33152127 -0.027780574 -0.17527351 4283254327
-0.33112779 -0.025643127 -0.17456241 4282794031
-0.33118555 -0.023492994 -0.17478062 4282595623
-0.33079371 -0.021362187 -0.17407247 4282792486
-0.33040345 -0.019236773 -0.17336743 4282925099
-0.3300148 -0.017116658 -0.17266545 4282793258
-0.32962775 -0.015001845 -0.17196646 4283578666
-0.32924226 -0.012892265 -0.17127053 4286266163
-0.32929996 -0.010745229 -0.17148842 4287580218
-0.32891604 -0.0086420719 -0.17079538 4287841596
-0.32853368 -0.006544061 -0.17010529 4287972926
-0.32771611 -0.0045057843 -0.16851664 4287907390
-0.32690486 -0.0024802377 -0.16694051 4287907901
-0.32609993 -0.00046720533 -0.16537672 4288169275
-0.32318965 0.001209503 -0.15946397 4288167740
-0.32158503 0.0030455792 -0.15624611 4287971642
-0.32041135 0.0049273544 -0.15391722 4287841596
-0.31925079 0.0067910743 -0.15161459 4287711038
-0.31810319 0.0086370576 -0.14933777 4287776318
-0.31736368 0.010545016 -0.14790373 4287776830
-0.316237 0.012359283 -0.14566866 4287842110
-0.3162922 0.014413789 -0.14587715 4287841597
-0.31517771 0.016202796 -0.14366588 4287972671
-0.31407541 0.017975263 -0.1414789 4287907137
-0.31336543 0.019825995 -0.14010301 4287907648
-0.31303969 0.021764103 -0.13952209 4288038466
-0.3123374 0.023597026 -0.13816121 4287451474
-0.31239194 0.025628099 -0.13836735 4285429109
-0.31244656 0.027662074 -0.13857378 4285703828
-0.31250131 0.029698897 -0.13878049 4285643941
-0.31217924 0.031623278 -0.13820648 4284066469
-0.31223401 0.033662222 -0.13841343 4283276192
-0.31191313 0.03558185 -0.13784167 4283342498
-0.31159353 0.037497502 -0.1372723 4283931809
-0.31127509 0.039409205 -0.1367052 4284192411
-0.31095791 0.041317035 -0.13614041 4284847753
-0.31027243 0.043086536 -0.13481127 4288456042
-0.31069663 0.045259114 -0.13578482 4291801416
-0.31075147 0.047300123 -0.13599196 4292258371
-0.31154984 0.049636144 -0.13774313 4290751069
-0.31273049 0.052143358 -0.14028904 4286030215
-0.3146894 0.054996163 -0.14445281 4284517252
-0.31707606 0.05806933 -0.14950714 4288123508
-0.31951562 0.06121359 -0.1546737 4289832313
-0.32200992 0.06443134 -0.15995619 4288976753
-0.33374304 -0.038603269 -0.18417382 4285949519
-0.33333656 -0.036420621 -0.1834317 4284569158
-0.33247152 -0.034240667 -0.18173598 4283584578
-0.33207014 -0.032073718 -0.18100367 4283386685
-0.3316704 -0.02991239 -0.18027458 4283320121
-0.33081904 -0.027766444 -0.17860575 4283123512
-0.33042431 -0.025620462 -0.17788626 4283320890
-0.3304812 -0.023461644 -0.17810638 4283451704
-0.33008808 -0.021322368 -0.17738993 4283122485
-0.32924986 -0.019215077 -0.17574666 4282990640
-0.32886162 -0.017090686 -0.17503966 4282859051
