# .PCD v0.7 - Point Cloud Data file format
VERSION 0.7
FIELDS x y z rgba
SIZE 4 4 4 4
TYPE F F F U
COUNT 1 1 1 1
WIDTH 1008
HEIGHT 1
VIEWPOINT 0 0 0 1 0 0 0
POINTS 1008
DATA ascii
-0.33557752 -0.036211304 -0.15099061 4283532938
-0.33608857 -0.034136914 -0.15205432 4283011475
-0.33705309 -0.032050326 -0.15398918 4283342238
-0.33802512 -0.029944753 -0.15593928 4285247151
-0.3394652 -0.027810397 -0.15878923 4289189835
-0.34092227 -0.025648057 -0.16167286 4290637273
-0.341925 -0.023475468 -0.16368452 4286693823
-0.34293571 -0.021282773 -0.16571236 4284328875
-0.34300154 -0.019123543 -0.16592439 4283738535
-0.34259361 -0.016992304 -0.16522565 4283606951
-0.34171712 -0.014901384 -0.16362561 4283475622
-0.34038267 -0.012862532 -0.16114412 4283475622
-0.33679205 -0.011054086 -0.15432115 4283934375
-0.33330992 -0.0092973076 -0.1477045 4284392865
-0.33078229 -0.0074961153 -0.14292243 4285638807
-0.32914934 -0.0056319251 -0.13986081 4285574544
-0.32795599 -0.0037390157 -0.13764454 4284393621
-0.32554704 -0.0020327631 -0.1330865 4283606951
-0.32479674 -0.00012557491 -0.13172148 4283802018
-0.32405198 0.0017706255 -0.13036661 4284840832
-0.32331264 0.0036559664 -0.12902179 4286992209
-0.32297564 0.0055993758 -0.12845176 4287848016
-0.32224429 0.007466461 -0.12712158 4286016858
-0.32191116 0.0093982425 -0.12655859 4286806618
-0.32157931 0.011325929 -0.12599783 4288255856
-0.32164043 0.013331662 -0.1261948 4288845424
-0.32170165 0.015340237 -0.12639205 4288244570
-0.32176295 0.017351609 -0.12658958 4288235328
-0.32182431 0.019365845 -0.12678739 4288103998
-0.32188579 0.021382885 -0.12698548 4287456078
-0.32273611 0.023603976 -0.12870637 4286869077
-0.32359257 0.025843926 -0.13043988 4286475091
-0.32445532 0.028102942 -0.13218619 4286668878
-0.32532445 0.030381212 -0.13394545 4287256393
-0.32619995 0.032678992 -0.13571781 4288039750
-0.32708192 0.034996465 -0.13750336 4288693570
-0.32797047 0.037333857 -0.1393023 4289021247
-0.32886565 0.039691422 -0.14111479 4288890687
-0.32934785 0.041931603 -0.1421296 4288628799
-0.32941216 0.044041391 -0.14233679 4288170304
-0.32989642 0.046299711 -0.14335634 4287191362
-0.33080572 0.048719972 -0.14519843 4285490757
-0.33129549 0.051005617 -0.14622952 4284045635
-0.33221525 0.053462997 -0.14809322 4283651135
-0.33357504 0.056107901 -0.15080927 4283912767
-0.33407581 0.05844235 -0.15186344 4283055923
-0.33545658 0.061141603 -0.15462193 4282662444
-0.33640817 0.06369172 -0.15655036 4282597675
-0.33871779 0.066832244 -0.16111 4282662960
-0.34015217 0.069641352 -0.16397582 4282991412
-0.34160334 0.072486259 -0.1668752 4283846972
-0.34307152 0.075367622 -0.16980876 4284573523
-0.33771238 -0.048898879 -0.15903467 4288648036
-0.33595371 -0.046694044 -0.15571383 4289109873
-0.33466801 -0.044542741 -0.15330796 4288713077
-0.33339709 -0.042413291 -0.15092994 4286153333
-0.33345896 -0.040348571 -0.15113366 4283861122
-0.3330797 -0.03827041 -0.15048254 4282945165
-0.33358294 -0.036210578 -0.15154198 4282815122
-0.33364505 -0.034137305 -0.15174656 4282947993
-0.33459541 -0.032058578 -0.15367377 4283145888
-0.3355532 -0.029960969 -0.15561615 4284262313
-0.33697227 -0.027834767 -0.15845419 4286889915
-0.33886904 -0.025667097 -0.16222025 4288007365
-0.34032729 -0.023480551 -0.16513669 4285511350
-0.34133065 -0.021287708 -0.16717124 4284132009
-0.3404561 -0.019181669 -0.16556087 4283804071
-0.34052062 -0.017027756 -0.16577342 4283606695
-0.33965284 -0.014940638 -0.16417542 4283475623
-0.33879191 -0.012866805 -0.16259007 4283409831
-0.33477846 -0.011099543 -0.15487918 4283475625
-0.33090085 -0.0093892189 -0.14742945 4283541415
-0.32883027 -0.0075467252 -0.14348911 4283934630
-0.3272137 -0.0056854482 -0.1404299 4283738277
-0.32603222 -0.0037955653 -0.13821553 4283672483
-0.32364756 -0.0020916408 -0.13366054 4283672741
-0.32290447 -0.00018753234 -0.13229685 4283606954
-0.32216683 0.0017055972 -0.1309433 4283864731
-0.32143459 0.0035879288 -0.12959976 4285296499
-0.3211005 0.0055281571 -0.12903069 4286993231
-0.32076773 0.0074642217 -0.12846397 4287518028
-0.32043624 0.0093961637 -0.12789951 4287328854
-0.32010594 0.011324012 -0.12733734 4287859304
-0.32016605 0.013329899 -0.12753524 4288248930
-0.32022625 0.015338621 -0.12773345 4288237899
-0.32028651 0.017350148 -0.12793194 4288168509
-0.32034686 0.019364538 -0.1281307 4287713603
-0.3204073 0.021381734 -0.12832974 4287128655
-0.32125124 0.023602981 -0.13005643 4286800463
-0.32210135 0.025843112 -0.13179576 4287125322
-0.32295766 0.028102251 -0.13354796 4287778630
-0.32382029 0.030380702 -0.13531312 4288628802
-0.3255024 0.032917373 -0.13867787 4289021505
-0.32679591 0.035369102 -0.14128561 4289087039
-0.32768723 0.037720945 -0.14310944 4288891198
-0.32816696 0.03995879 -0.14413054 4288498238
-0.32906848 0.042346697 -0.14597563 4288038461
-0.32913205 0.044468399 -0.14618498 4287317564
-0.32961741 0.046740238 -0.14721833 4286140731
-0.33052966 0.049175829 -0.14908612 4284568119
-0.33059388 0.051318455 -0.14929754 4283121711
-0.33151335 0.053786382 -0.15118068 4283254578
-0.3328732 0.056443211 -0.15392536 4284045115
-0.3333734 0.058787245 -0.15499039 4282989616
-0.33475426 0.061498843 -0.15777814 4282596906
-0.33570567 0.064060219 -0.15972698 4282794025
-0.3380163 0.067216545 -0.16433567 4282728239
-0.33899328 0.069840863 -0.16633666 4283057973
-0.34043935 0.072692603 -0.16925648 4283978303
-0.34190243 0.075580955 -0.17221077 4286543193
-0.33884424 -0.051215034 -0.16566381 4287269220
-0.33751515 -0.04900074 -0.16315286 4288250967
-0.33529344 -0.046754885 -0.15889531 4289305451
-0.33400553 -0.044594832 -0.15646274 4289108338
-0.33229113 -0.042438138 -0.15319489 4287267693
-0.33235204 -0.040369306 -0.15339999 4284647039
-0.33153486 -0.038276467 -0.15188651 4283208338
-0.33159572 -0.036209814 -0.1520914 4282947223
-0.33165663 -0.03414033 -0.15229657 4283013786
-0.33215627 -0.032066736 -0.15336104 4283079582
-0.33265787 -0.029982302 -0.15442979 4283473313
-0.33405098 -0.027868355 -0.15724562 4284655015
-0.33636743 -0.025699746 -0.16187187 4285312684
-0.33734435 -0.023539726 -0.16387457 4284329130
-0.33879259 -0.021337515 -0.16680205 4283738279
-0.33701184 -0.019291883 -0.16339968 4283672485
-0.33661813 -0.017184816 -0.16271605 4283540901
-0.33622599 -0.015082972 -0.16203535 4283475366
-0.33493394 -0.013062411 -0.15958896 4283344296
-0.3318944 -0.01122695 -0.15371272 4283344296
-0.32893479 -0.0094367852 -0.14799111 4283344807
-0.32646784 -0.0076437481 -0.14323445 4283410342
-0.32487357 -0.0057884813 -0.14018936 4283279272
-0.32370824 -0.0039048013 -0.13798539 4283475880
-0.32175475 -0.0021502948 -0.13423266 4283541158
-0.32101882 -0.00024927303 -0.13287036 4283344296
-0.32028827 0.0016408226 -0.13151814 4283540129
-0.31956306 0.0035201688 -0.13017587 4284519572
-0.31923193 0.0054572029 -0.12960778 4285491310
-0.31890205 0.0073900768 -0.12904195 4287448385
-0.31857345 0.0093188575 -0.12847839 4287452489
-0.31863242 0.011322095 -0.128677 4288045649
-0.31869149 0.013328137 -0.12887588 4288633421
-0.31875062 0.015337014 -0.12907507 4289022020
-0.31880984 0.017348696 -0.1292745 4288825154
-0.31886917 0.019363211 -0.12947422 4287452231
-0.31931683 0.021477398 -0.13043861 4287059528
-0.31976619 0.023602013 -0.13140669 4287581509
-0.32100397 0.025947804 -0.133928 4288366402
-0.32185683 0.028211605 -0.13569205 4289086783
-0.32311746 0.030609673 -0.13826019 4289217853
-0.32479951 0.033157468 -0.14165984 4288956480
-0.32609281 0.035619717 -0.14429466 4288629568
-0.32698375 0.037981369 -0.1461374 4288301629
-0.32746288 0.040228151 -0.14716887 4287842107
-0.32836407 0.042626128 -0.1490331 4287053880
-0.32842678 0.044755839 -0.14924425 4286005044
-0.32891151 0.047036871 -0.15028819 4284892208
-0.32982343 0.049482841 -0.15217546 4283777581
-0.32988676 0.051633634 -0.15238869 4282791974
-0.33080596 0.054112196 -0.15429151 4282726435
-0.33216581 0.056781061 -0.15706521 4282923555
-0.33310246 0.059308756 -0.15900438 4282661413
-0.33404636 0.061858851 -0.16095862 4282728493
-0.33544329 0.064617328 -0.16380864 4283189044
-0.3368564 0.067410804 -0.16669185 4283123768
-0.33782968 0.070041113 -0.16870688 4283715645
-0.33927059 0.072899759 -0.17164727 4284373575
-0.33818433 -0.05129528 -0.1689457 4285817432
-0.33639207 -0.049039647 -0.16549672 4288118364
-0.33462781 -0.046816219 -0.16210176 4289502318
-0.3328909 -0.044624295 -0.1587595 4289305712
-0.33162078 -0.042481784 -0.15633835 4288185964
-0.33080214 -0.040375516 -0.15480857 4285759351
-0.32998979 -0.038282488 -0.1532907 4283730825
-0.3296158 -0.036209088 -0.152639 4283011988
-0.32924336 -0.034140699 -0.15199009 4282946967
-0.3297354 -0.032074828 -0.15305082 4282947224
-0.32979533 -0.030003425 -0.15325718 4283209625
-0.33072543 -0.027910786 -0.15518542 4283801499
-0.33210376 -0.02578591 -0.15800147 4283998877
-0.33394611 -0.023615886 -0.16173716 4283408031
-0.33445725 -0.021474935 -0.16283883 4283278500
-0.33497044 -0.019322716 -0.16394511 4283475364
-0.33458036 -0.017219506 -0.16326272 4283475108
-0.33419183 -0.015121491 -0.16258331 4283344294
-0.33246952 -0.013142111 -0.15926091 4283278759
-0.32861429 -0.011393225 -0.15171036 4283278758
-0.32613596 -0.0095709627 -0.14688616 4283279012
-0.32412267 -0.0077400855 -0.14298193 4283279012
-0.32255039 -0.0058907601 -0.13995083 4283278503
-0.321401 -0.0040132417 -0.13775715 4283344296
-0.3194744 -0.0022639423 -0.13402104 4283278502
-0.31913975 -0.00031081369 -0.13344197 4283277987
-0.31841624 0.0015762955 -0.13209109 4283474847
-0.31769803 0.0034526584 -0.13075016 4285574565
-0.31736979 0.0053864648 -0.13018298 4284907400
-0.31704277 0.0073161703 -0.12961806 4286792256
-0.31710064 0.0093167583 -0.12981734 4287513150
-0.31715861 0.01132015 -0.13001691 4288758850
-0.31721663 0.013326377 -0.13021675 4289480002
-0.31727475 0.015335379 -0.13041687 4290006344
-0.31733295 0.017347237 -0.13061728 4289875272
-0.31777677 0.019455111 -0.13158439 4288106310
-0.31822222 0.021573409 -0.13255522 4287776320
-0.31905925 0.023803631 -0.13430518 4288561471
-0.31990242 0.026052885 -0.13606809 4289086015
-0.32114896 0.028432127 -0.13863434 4289217852
-0.32240924 0.030840343 -0.14122897 4288955964
-0.32409123 0.033399362 -0.14466399 4288564031
-0.32538429 0.035872214 -0.14732622 4288106048
-0.32627478 0.038243726 -0.14918798 4287579963
-0.32675332 0.040499516 -0.15023001 4286790965
-0.32765409 0.042907599 -0.15211362 4285806640
-0.32771596 0.045045462 -0.15232657 4284364330
-0.32777789 0.04718633 -0.15253983 4283315493
-0.32868615 0.049637597 -0.15444009 4282856483
-0.32874849 0.051792625 -0.15465476 4282529570
-0.32966399 0.054276571 -0.15657072 4282530593
-0.33058652 0.05678238 -0.15850146 4282530592
-0.3319518 0.059484947 -0.16131628 4282597675
-0.33377534 0.062403131 -0.16504653 4283057458
-0.33472985 0.064992912 -0.16704409 4283649852
-0.33614314 0.067799531 -0.16995822 4284044609
-0.33711624 0.070441723 -0.17199481 4284242243
-0.33809701 0.073107712 -0.17404757 4284504651
-0.3375189 -0.05137616 -0.17225379 4285355854
-0.33572376 -0.049110841 -0.16876628 4288184668
-0.33395675 -0.04687804 -0.16533349 4289369966
-0.33221722 -0.044676971 -0.16195422 4289370225
-0.33050454 -0.042506903 -0.15862723 4288974959
-0.32968751 -0.040396404 -0.15708672 4287135085
-0.32844448 -0.038288511 -0.15469511 4284711806
-0.3280724 -0.036214966 -0.15404172 4283273102
-0.32684809 -0.034141067 -0.15168604 4282749074
-0.32690653 -0.032084092 -0.1518919 4282880147
-0.32696506 -0.030024271 -0.15209807 4283274901
-0.32787806 -0.02794349 -0.15401189 4283341204
-0.3283667 -0.025857059 -0.15507834 4283011219
-0.32929045 -0.023742685 -0.1570151 4282684058
-0.32509035 -0.021859219 -0.14870717 4282949794
-0.32598802 -0.019755891 -0.15059139 4283277988
-0.32562616 -0.017718788 -0.14995685 4283278244
-0.32526574 -0.015686497 -0.14932494 4283278501
-0.32532436 -0.013623211 -0.14953142 4283212967
-0.3241345 -0.011675349 -0.14723916 4283213221
-0.3233681 -0.009703638 -0.14579371 4283082403
-0.32139027 -0.0078814849 -0.14192204 4283213220
-0.32024401 -0.0059922962 -0.13971424 4283277991
-0.3191103 -0.0041208891 -0.13753082 4283212454
-0.31838048 -0.0022117787 -0.13615571 4283147429
-0.31687987 -0.0004303043 -0.13323548 4283409312
-0.31616604 0.0014506178 -0.13189115 4283670940
-0.31583941 0.0033853566 -0.13132259 4286034859
-0.31589621 0.0053840806 -0.13152261 4284712841
-0.3155708 0.0073139472 -0.13095626 4286660931
-0.31562766 0.0093146898 -0.1311565 4288235331
-0.31568459 0.011318237 -0.13135703 4289283655
-0.3157416 0.013324581 -0.13155781 4289544516
-0.31579867 0.015333767 -0.1317589 4290071625
-0.31623864 0.017435377 -0.13272871 4290464327
-0.31668019 0.019547341 -0.13370229 4289546822
-0.31673774 0.021572258 -0.13390493 4288758591
-0.31795698 0.023904502 -0.13644138 4288627007
-0.31879663 0.026158351 -0.1382162 4288693311
-0.32003835 0.028542651 -0.14079982 4288563262
-0.32169563 0.031072682 -0.14421974 4288367423
-0.32337743 0.033643018 -0.14769046 4288236864
-0.3242577 0.035999071 -0.14955087 4287712063
-0.32514462 0.03837562 -0.15142539 4287054392
-0.32603821 0.040772893 -0.15331419 4286003503
-0.32651797 0.04304928 -0.15437108 4284494888
-0.32699955 0.045337219 -0.15543224 4283183651
-0.32706064 0.047486275 -0.15564731 4282529059
-0.32796848 0.049948081 -0.15756743 4282332706
-0.32802996 0.052111369 -0.15778393 4282136866
-0.32894513 0.054606076 -0.15971996 4282268963
-0.32986724 0.057122789 -0.16167097 4282728489
-0.33167019 0.060014423 -0.16539758 4283257146
-0.33261356 0.062587097 -0.16739336 4283913025
-0.33356428 0.065182738 -0.16940488 4284440392
-0.33452243 0.06780158 -0.17143223 4284438345
-0.33548811 0.07044398 -0.17347558 4284964429
-0.3364614 0.073110148 -0.17553519 4285752658
-0.33591554 -0.051383391 -0.17371084 4284962639
-0.33459002 -0.049150188 -0.17113551 4288250974
-0.33237633 -0.046884853 -0.16676974 4289042287
-0.33109215 -0.044706799 -0.16427544 4289174643
-0.32938376 -0.042532153 -0.16092511 4289305715
-0.32813418 -0.040402621 -0.15849841 4288317294
-0.32689893 -0.038294561 -0.15609972 4285954420
-0.32567781 -0.036207639 -0.1537286 4283925891
-0.32447061 -0.034141466 -0.15138453 4282748558
-0.3245278 -0.032092072 -0.1515906 4282814095
-0.32416645 -0.030044913 -0.15095225 4283077006
-0.32464236 -0.027984787 -0.15200359 4282813066
-0.32386374 -0.025952412 -0.15052269 4282746765
-0.32433835 -0.023882782 -0.15157184 4282750876
-0.32150614 -0.021964757 -0.14594293 4282949796
-0.32156295 -0.01992894 -0.14614762 4283081123
-0.32121292 -0.017917799 -0.14553051 4283081379
-0.32086426 -0.015911274 -0.14491595 4283081382
-0.32092109 -0.013874522 -0.14512073 4283081639
-0.32057375 -0.01187349 -0.14450862 4283147941
-0.31982645 -0.0099190408 -0.14308749 4283016357
-0.31868765 -0.0080213267 -0.14087398 4283212709
-0.31756133 -0.0061415266 -0.1386849 4283212709
-0.31683597 -0.0042277537 -0.1373063 4283277988
-0.31611595 -0.0023250259 -0.13593793 4283345061
-0.31501788 -0.00049115461 -0.13380378 4283475106
-0.31469163 0.0014478975 -0.13323149 4284064669
-0.31398723 0.0033183233 -0.13189314 4284392614
-0.31404287 0.0053136107 -0.13209377 4283991173
-0.31409863 0.0073116957 -0.13229467 4287186504
-0.31415445 0.0093125924 -0.13249585 4289679181
-0.31421033 0.011316287 -0.13269733 4289415501
-0.31426632 0.013322824 -0.13289909 4289020226
-0.31470239 0.01541815 -0.13387163 4289019709
-0.3151401 0.017523807 -0.13484791 4290069574
-0.31557947 0.019639893 -0.13582794 4290267727
-0.31640631 0.021864625 -0.13759458 4289283653
-0.31762931 0.024211328 -0.14016584 4288431425
-0.31847128 0.026478739 -0.14196487 4288170305
-0.31971702 0.028878024 -0.14458421 4288040002
-0.32097653 0.031306725 -0.14723273 4287973953
-0.32306769 0.034012083 -0.15157139 4288103999
-0.32395068 0.036382828 -0.15345766 4287906622
-0.32442436 0.03864089 -0.15451322 4286921782
-0.3253175 0.041048329 -0.15642172 4285084714
-0.32579657 0.04333394 -0.15748945 4283249188
-0.32627755 0.045631174 -0.15856145 4282397474
-0.32633772 0.047788508 -0.15877837 4282136097
-0.32682079 0.050104592 -0.15985547 4282136098
-0.32730579 0.052432507 -0.16093695 4282398755
-0.32779267 0.054772329 -0.16202281 4282662442
-0.32914227 0.057465777 -0.16486482 4283122996
-0.33007118 0.060015939 -0.16685177 4283912257
-0.3310073 0.062588774 -0.16885416 4284439371
-0.33239394 0.065373264 -0.17177498 4285095491
-0.33334827 0.067998126 -0.1738165 4285424718
-0.33431011 0.070646577 -0.1758742 4284900690
-0.33431199 -0.051390652 -0.17516805 4284833103
-0.33299485 -0.049157236 -0.17258514 4287920471
-0.33079562 -0.046891663 -0.16820624 4288975724
-0.3295196 -0.0447134 -0.16570453 4289174128
-0.32782227 -0.042538572 -0.16234419 4289240179
-0.32658058 -0.040408839 -0.15991032 4288845422
-0.32535318 -0.038300578 -0.15750456 4287463784
-0.32413977 -0.036213458 -0.15512644 4285037941
-0.3225247 -0.034144465 -0.1519289 4283205509
-0.32175416 -0.032101151 -0.15045117 4282747527
-0.32139897 -0.030065324 -0.14981949 4282681222
-0.32104522 -0.028034255 -0.14919043 4282551181
-0.32069284 -0.026007952 -0.14856401 4282619032
-0.32034183 -0.023986349 -0.14794022 4283079584
-0.3183856 -0.022048736 -0.14404154 4283276963
-0.31804287 -0.020051122 -0.14343354 4283146403
-0.31730619 -0.018084954 -0.14202133 4283015586
-0.31696749 -0.016099952 -0.14142092 4283081892
-0.31663004 -0.014119442 -0.14082289 4283016867
-0.31747198 -0.012030177 -0.14263299 4283016612
-0.31674039 -0.010089267 -0.14123002 4283212709
-0.31562564 -0.0082042525 -0.13904366 4283277990
-0.31490749 -0.0062891357 -0.13766696 4283409572
-0.31457785 -0.0043338491 -0.1370836 4283540386
-0.31386751 -0.0024374253 -0.13572192 4283476646
-0.31316236 -0.00055181456 -0.13437028 4283607206
-0.312839 0.001384062 -0.13379891 4283934373
-0.31251684 0.0033157934 -0.13322984 4283603865
-0.3125715 0.0053112358 -0.13343142 4284119169
-0.31262618 0.0073094754 -0.13363329 4288302671
-0.31268099 0.0093105268 -0.13383543 4289611859
-0.31273586 0.011314376 -0.13403784 4289151817
-0.31316808 0.013403425 -0.1350131 4288494654
-0.31360194 0.015502813 -0.13599212 4288036666
-0.31441897 0.017703131 -0.13775651 4288561986
-0.31524199 0.019922176 -0.13953392 4289153106
-0.31607103 0.022160202 -0.14132454 4289088074
-0.31729788 0.024521504 -0.14393122 4288433221
-0.31814221 0.026802642 -0.14575489 4288040260
-0.31939185 0.029217105 -0.14841057 4287973698
-0.32065547 0.031661313 -0.15109597 4287971901
-0.32234302 0.034260318 -0.15465225 4288102717
-0.32322547 0.036641028 -0.15655808 4287907646
-0.32411459 0.039042599 -0.15847854 4286201909
-0.32459113 0.041325845 -0.15955283 4283970088
-0.32506952 0.043620735 -0.16063149 4282725411
-0.32554984 0.045927383 -0.16171454 4282530595
-0.32560915 0.048093013 -0.16193329 4282267679
-0.32566851 0.050261702 -0.16215238 4282200866
-0.3261511 0.052594483 -0.16324128 4282529573
-0.32663563 0.054939222 -0.16433457 4283187500
-0.32841155 0.057811398 -0.16808333 4284108863
-0.32934004 0.060372811 -0.1700912 4284700999
-0.3302758 0.062957123 -0.17211488 4284965448
-0.33121887 0.065564558 -0.17415451 4285228875
-0.33216932 0.068195418 -0.17621027 4285162060
-0.33312729 0.070849985 -0.17828235 4286869852
-0.3322511 -0.05136092 -0.17568648 4285095759
-0.33139944 -0.049164284 -0.17403498 4286999376
-0.32921472 -0.046898503 -0.16964293 4288712551
-0.32794681 -0.044720039 -0.16713385 4288977008
-0.32669365 -0.042563926 -0.16465417 4288977009
-0.32502678 -0.040415052 -0.16132244 4289239149
-0.32338527 -0.038296033 -0.15804173 4288777839
-0.32218429 -0.036212724 -0.15566604 4286741100
-0.3201763 -0.034144811 -0.1516286 4284383353
-0.31941637 -0.032108989 -0.15015846 4283010442
-0.31866217 -0.030085502 -0.14869958 4282682510
-0.31831437 -0.028065542 -0.14807704 4282618003
-0.31796798 -0.026050277 -0.14745717 4282685338
-0.31603959 -0.024103472 -0.1435779 4282882975
-0.31531045 -0.02213149 -0.14216821 4283210913
-0.31497476 -0.020148173 -0.14156894 4283669919
-0.31425363 -0.018195769 -0.14017481 4284064155
-0.31392187 -0.016224846 -0.13958299 4284065691
-0.31359136 -0.014258279 -0.13899365 4283475100
-0.31364509 -0.012259042 -0.13919653 4283343263
-0.31369886 -0.010256996 -0.13939972 4283671714
-0.31298789 -0.0083405729 -0.13802485 4283804070
-0.3126612 -0.0063877632 -0.13744262 4283934629
-0.31233573 -0.0044391779 -0.13686274 4283605407
-0.31201151 -0.0024948246 -0.13628522 4283345058
-0.31168854 -0.00055465713 -0.13571011 4283475620
-0.31099272 0.0013204208 -0.1343645 4283473826
-0.31104624 0.0033132352 -0.13456675 4283536788
-0.31109986 0.005308832 -0.13476929 4285752183
-0.31115356 0.0073072263 -0.1349721 4289549655
-0.31120732 0.0093084332 -0.1351752 4289415515
-0.3116357 0.011391235 -0.13615315 4288955465
-0.31244299 0.013567327 -0.13791534 4288298813
-0.31325623 0.015761938 -0.13969056 4287708987
-0.31407541 0.017975258 -0.14147888 4287708985
-0.31490061 0.020207558 -0.14328045 4288168252
-0.31612208 0.022559736 -0.1459033 4288300608
-0.31735715 0.024940724 -0.14855531 4288106310
-0.31780919 0.027130112 -0.14958692 4287974212
-0.31906286 0.029559948 -0.15227957 4288103229
-0.32033062 0.032019887 -0.15500253 4288168763
-0.32202411 0.034636311 -0.15860908 4288039231
-0.32290924 0.037032019 -0.16054155 4287713346
-0.32338318 0.039312914 -0.16162248 4285940530
-0.32385904 0.04160545 -0.16270781 4283446307
-0.32433674 0.043909747 -0.16379754 4282660901
-0.32481638 0.046225801 -0.16489168 4282595367
-0.32445326 0.048246432 -0.16423765 4282397476
-0.32493323 0.050576903 -0.16533329 4282135846
-0.32499182 0.052757069 -0.16555454 4282662445
-0.32632565 0.05544138 -0.16842395 4283517498
-0.32724324 0.057985879 -0.17043006 4283782727
-0.32816789 0.060553044 -0.17245191 4284768588
-0.32909977 0.063143186 -0.17448962 4285425229
-0.33003896 0.065756589 -0.17654346 4285096272
-0.33054158 0.068197481 -0.17769065 4286211676
-0.33065021 -0.051368166 -0.17714128 4285622867
-0.32980379 -0.049171329 -0.17548506 4285488971
-0.32763356 -0.046905316 -0.17107983 4287857245
-0.32637379 -0.04472664 -0.1685634 4288910955
-0.3251287 -0.042570356 -0.16607641 4288779631
-0.32347268 -0.0404213 -0.16273481 4289042799
-0.32184198 -0.038302068 -0.15944433 4289239922
-0.32023594 -0.03621199 -0.15620384 4288317296
-0.3182489 -0.034147788 -0.15216987 4286085231
-0.31749651 -0.032115582 -0.15070143 4283925629
-0.31635189 -0.03010056 -0.14841671 4282879883
-0.31561357 -0.028096484 -0.14697623 4282683794
-0.31488079 -0.02610435 -0.14554664 4282750615
-0.31299353 -0.024171108 -0.14171401 4282817179
-0.31266221 -0.022193905 -0.14111845 4283013528
-0.31195092 -0.02024379 -0.13973165 4284455565
-0.31124488 -0.018304985 -0.13835512 4286685826
-0.31091994 -0.016347915 -0.13777183 4287276925
-0.3105962 -0.014395143 -0.13719091 4285441665
-0.3106485 -0.01241014 -0.1373933 4283866769
-0.31070089 -0.010422339 -0.13759597 4283934112
-0.31037834 -0.0084754359 -0.13701722 4286296746
-0.31005707 -0.006532718 -0.13644087 4284391589
-0.31010947 -0.004543778 -0.13664366 4283540377
-0.31016195 -0.0025520481 -0.13684675 4283344294
-0.31021449 -0.00055752805 -0.13705011 4283212195
-0.30952293 0.0013177389 -0.13570069 4283145118
-0.30957544 0.0033106857 -0.13590387 4283666572
-0.30962798 0.00530646 -0.13610737 4287583331
-0.31005239 0.0073766396 -0.13708737 4289351508
-0.31047839 0.0094570257 -0.13807115 4289152327
-0.31053135 0.011468374 -0.13827623 4288497215
-0.3117125 0.013732384 -0.14083876 4288037946
-0.31252494 0.015935684 -0.14263192 4287841852
-0.31372786 0.018250395 -0.14524207 4287842365
-0.31455523 0.020496039 -0.14706822 4287842621
-0.31578049 0.022862911 -0.14972736 4287843134
-0.3170194 0.025258943 -0.15241621 4288038976
-0.31747228 0.027461197 -0.15346165 4288299583
-0.31872997 0.029906616 -0.15619193 4288235071
-0.32000187 0.032382455 -0.15895313 4288040256
-0.32128817 0.034889203 -0.16174579 4287909955
-0.32175791 0.037163205 -0.16282968 4287648579
-0.3222295 0.03944879 -0.16391802 4285809716
-0.32270291 0.04174611 -0.16501077 4283446568
-0.32317823 0.044055194 -0.16610794 4282662444
-0.32323545 0.046226263 -0.16632929 4282333996
-0.32329273 0.048400447 -0.16655096 4282201126
-0.32377034 0.050735805 -0.16765413 4282530858
-0.32467335 0.053246591 -0.16965005 4283189303
-0.3255834 0.055779722 -0.17166159 4284044867
-0.32607019 0.058160994 -0.17278603 4284242765
-0.32699099 0.06073397 -0.17482188 4284768844
-0.32791901 0.063329995 -0.17687377 4285360205
-0.32885426 0.065949358 -0.17894189 4286276955
-0.32904911 -0.051375374 -0.17859629 4286280534
-0.32776237 -0.04914597 -0.17600124 4284832330
-0.32605216 -0.046912123 -0.17251697 4287066705
-0.32480052 -0.044733271 -0.16999318 4288515173
-0.32356346 -0.042576782 -0.16749889 4288844138
-0.3219184 -0.040427513 -0.16414736 4289107566
-0.32029843 -0.038308103 -0.16084714 4289304945
-0.318703 -0.036217816 -0.15759702 4288647793
-0.31672922 -0.034153428 -0.15355101 4287196261
-0.31558353 -0.032122184 -0.15124258 4285033068
-0.31405842 -0.03011553 -0.14813612 4283270787
-0.31294227 -0.02812708 -0.1458877 4282683792
-0.31183839 -0.026157659 -0.1436642 4282749844
-0.31112638 -0.024191413 -0.14226349 4282815379
-0.31079802 -0.022217607 -0.14166896 4284257672
-0.31009379 -0.020270778 -0.14028361 4287996780
-0.30902144 -0.018361136 -0.13812345 4291148884
-0.30833003 -0.016440092 -0.1367638 4291936085
-0.30838105 -0.014464801 -0.13696612 4290031957
-0.30843213 -0.012486756 -0.13716874 4285769852
-0.3084833 -0.010505923 -0.13737163 4283804070
-0.30816486 -0.0085656838 -0.13679633 4284264374
-0.30784765 -0.0066296263 -0.13622332 4283541413
-0.30789885 -0.0046476028 -0.13642633 4283278756
-0.30831876 -0.0026090327 -0.13740644 4283277219
-0.3083702 -0.00061793451 -0.13761038 4283145630
-0.3080529 0.0013150361 -0.13703705 4283078552
-0.30847329 0.0033726394 -0.13801911 4284384901
-0.30852494 0.0053721075 -0.13822392 4288302416
-0.30894706 0.0074462756 -0.13921042 4288693578
-0.30937076 0.0095307017 -0.1402007 4288496447
-0.31054664 0.011785597 -0.14277895 4288169021
-0.3113552 0.013983116 -0.14458308 4287973436
-0.31216976 0.016199503 -0.14640062 4287909184
-0.31337625 0.018528504 -0.14904676 4287843907
-0.31459612 0.020886118 -0.15172239 4287844423
-0.3158296 0.023272811 -0.15442796 4287973698
-0.31707689 0.025689075 -0.15716402 4288168253
-0.31753212 0.02790872 -0.15822709 4288169535
-0.31879851 0.030375136 -0.16100559 4287908931
-0.31966916 0.032749113 -0.1629485 4287843907
-0.32013467 0.035016194 -0.16403538 4287778369
-0.32060197 0.037294868 -0.16512673 4286597438
-0.32065761 0.039448757 -0.16534734 4284366642
-0.321127 0.041746244 -0.16644379 4283252269
-0.3215982 0.044055492 -0.16754472 4283057457
-0.32165429 0.046226747 -0.16776712 4282597161
-0.32171047 0.048401073 -0.16798982 4282530601
-0.32260275 0.050895292 -0.16998398 4283056690
-0.32392564 0.053576373 -0.17289157 4283911741
-0.32483515 0.056120701 -0.17492433 4284765508
-0.32532126 0.05851195 -0.17606042 4284701517
-0.32624155 0.0610964 -0.17811784 4284900688
-0.32716909 0.063704066 -0.18019153 4286344791
-0.32616937 -0.04915303 -0.1774489 4285161805
-0.32447052 -0.046918958 -0.17395431 4285620809
-0.32279804 -0.044716634 -0.1705142 4287594333
-0.321998 -0.042583209 -0.16892159 4288646502
-0.32036385 -0.040433757 -0.16556016 4289042029
-0.31875467 -0.038314104 -0.16225015 4289173359
-0.31716985 -0.036223669 -0.15899041 4287531112
-0.31481135 -0.034156382 -0.15408808 4285619280
-0.31407106 -0.03212763 -0.15261719 4285158227
-0.31255609 -0.030120779 -0.14950156 4284378480
-0.31144717 -0.028132174 -0.14724658 4283205513
-0.31035045 -0.026162561 -0.14501658 4282748817
-0.30964282 -0.024196144 -0.14361191 4282944908
-0.30894038 -0.02224122 -0.14221767 4285634169
-0.3082431 -0.020297665 -0.14083377 4290160984
-0.30718163 -0.018391153 -0.13867548 4292129598
-0.30649701 -0.016473316 -0.13731723 4292654400
-0.30618146 -0.014533932 -0.13674311 4291342152
-0.30623138 -0.012562829 -0.13694593 4286950003
-0.30628133 -0.010588947 -0.13714905 4283605150
-0.3063314 -0.00861229 -0.13735242 4283082407
-0.30638149 -0.0066329166 -0.13755611 4283277986
-0.30643168 -0.0046507684 -0.13776006 4283146658
-0.30648193 -0.0026658452 -0.13796429 4283211423
-0.30653223 -0.00067814637 -0.13816884 4283013530
-0.30658263 0.0013123273 -0.13837364 4283339663
-0.30699936 0.0033700792 -0.13935906 4286017140
-0.30741766 0.005438 -0.14034826 4288235334
-0.30783749 0.0075161564 -0.14134125 4288431422
-0.30863079 0.0096809007 -0.14313084 4288169535
-0.31018317 0.012026036 -0.1465399 4288039488
-0.31099382 0.014236592 -0.14836855 4287909184
-0.31219491 0.01655636 -0.15103102 4287844162
-0.31340936 0.018904626 -0.15372321 4287778883
-0.31424412 0.021182103 -0.1556064 4287973698
-0.31548142 0.023583913 -0.15834974 4288103230
-0.31673267 0.026015656 -0.16112415 4288104254
-0.31718877 0.028248547 -0.1622016 4287909443
-0.31845924 0.030730976 -0.16501929 4287713349
-0.31892216 0.032995671 -0.16611287 4287451202
-0.31938693 0.035271958 -0.16721086 4286401086
-0.31985348 0.037559908 -0.16831334 4284629561
-0.3199082 0.039722126 -0.16853581 4283384116
-0.31996304 0.041887406 -0.1687586 4283450933
-0.32043186 0.044201471 -0.1698671 4283582265
-0.3209025 0.046527449 -0.17098007 4283319860
-0.32095775 0.048710238 -0.17120467 4283385397
-0.32269216 0.051536959 -0.17502363 4283517755
-0.32317191 0.053908702 -0.17615817 4284109120
-0.32408085 0.056464285 -0.17821239 4284765765
-0.32456625 0.058865625 -0.17936035 4285030224
-0.32548606 0.061461616 -0.18143956 4286674521
-0.32413861 -0.049127787 -0.17796063 4285951059
-0.32245785 -0.046898097 -0.17446986 4284700743
-0.32122737 -0.04472325 -0.17194161 4286082128
-0.32043228 -0.042589664 -0.1703445 4287989601
-0.31880909 -0.040439967 -0.16697314 4288844906
-0.31721064 -0.038320132 -0.16365339 4288780139
-0.3156364 -0.036229491 -0.16038404 4286214746
-0.3136892 -0.034164671 -0.15631393 4283977283
-0.31255835 -0.03213308 -0.15399203 4284106818
-0.31105351 -0.030126056 -0.15086719 4284897881
-0.30995184 -0.028137233 -0.14860564 4284314998
-0.3088623 -0.026167437 -0.14636917 4283205256
-0.30778471 -0.024216365 -0.14415734 4282944137
-0.30708924 -0.022264745 -0.14276463 4285437048
-0.30603102 -0.020346774 -0.14059266 4289964633
-0.30534822 -0.018421087 -0.13922577 4292129346
-0.30467033 -0.016506383 -0.13786887 4292391237
-0.30471915 -0.014537841 -0.13807234 4290883155
-0.30476803 -0.01256658 -0.1382761 4286160759
-0.30445528 -0.010632012 -0.13770288 4283209883
-0.30450422 -0.0086587546 -0.13790685 4283015845
-0.30455321 -0.0066827289 -0.13811111 4283211684
-0.30496424 -0.0046539032 -0.13909401 4283407779
-0.30501348 -0.0026688247 -0.1392992 4283275931
-0.30506277 -0.00068097882 -0.13950469 4283208597
-0.30547571 0.0013705551 -0.14049277 4284254595
-0.30589017 0.0034322285 -0.14148466 4287058773
-0.30667382 0.0055728992 -0.14327189 4287973696
-0.30709282 0.0076589407 -0.14427474 4288170560
-0.30863294 0.0099866968 -0.14769277 4287973952
-0.3094368 0.012187127 -0.14952631 4287843136
-0.31062818 0.014492883 -0.15219584 4287779139
-0.31183285 0.016827013 -0.15489516 4287778886
-0.31305096 0.019190017 -0.15762478 4287777600
-0.31388798 0.021481417 -0.15953393 4287907135
-0.31552845 0.024004586 -0.16317695 4287972928
-0.31678829 0.026457159 -0.16600056 4287843136
-0.31684124 0.028592221 -0.16622125 4287778625
-0.31770712 0.030970218 -0.16819665 4286925888
-0.31816927 0.033244103 -0.16930138 4285810749
-0.31863323 0.035529666 -0.17041066 4284630846
-0.31909904 0.037827 -0.17152444 4283451197
-0.31915286 0.0399976 -0.1717488 4283583289
-0.31920677 0.042171281 -0.1719735 4284503102
-0.31967479 0.044494867 -0.17309333 4284963396
-0.32014468 0.046830446 -0.17421782 4285095495
-0.32103541 0.049334969 -0.17625286 4285227080
-0.32193312 0.051861927 -0.17830393 4285292873
-0.3224121 0.054243594 -0.1794502 4285424202
-0.32289305 0.056637656 -0.18060125 4286080848
-0.32337588 0.059044138 -0.18175708 4287003486
-0.3208788 -0.046904918 -0.17590484 4284964681
-0.31965643 -0.044729866 -0.17336924 4284701764
-0.31886634 -0.042596087 -0.17176762 4286936917
-0.31725404 -0.040446207 -0.16838637 4288515685
-0.31566641 -0.038326163 -0.16505682 4288581734
-0.31410277 -0.036235314 -0.16177787 4285885523
-0.31216884 -0.034170277 -0.1576957 4283386946
-0.31104544 -0.032138523 -0.15536706 4284042307
-0.30993459 -0.03012649 -0.15306453 4286079318
-0.3084563 -0.028142324 -0.14996494 4286212967
-0.30699962 -0.026184296 -0.14691085 4284576885
-0.30593309 -0.024236508 -0.14470102 4283401347
-0.30524451 -0.022288185 -0.14330977 4284649852
-0.30456099 -0.020351171 -0.14192884 4287734120
-0.30388245 -0.018425286 -0.14055808 4290031705
-0.30284995 -0.016539363 -0.13841879 4290228573
-0.30289766 -0.014574177 -0.13862285 4287733359
-0.30294544 -0.012606277 -0.1388272 4284256138
-0.3029933 -0.010635603 -0.13903183 4282881948
-0.30304122 -0.0086621977 -0.13923675 4283277987
-0.3030892 -0.0066860402 -0.13944192 4284262057
-0.30313727 -0.0047071218 -0.13964741 4284066732
-0.30354482 -0.0026718401 -0.14063431 4283340182
-0.30359307 -0.0006838321 -0.14084072 4283469196
-0.30436456 0.0014289685 -0.14261967 4285361519
-0.30514163 0.0035597575 -0.14441165 4287515202
-0.30555677 0.0056395 -0.14541721 4287712064
-0.30634248 0.0078027621 -0.14722964 4287712064
-0.30825758 0.010218449 -0.15150064 4287515199
-0.30906343 0.012431971 -0.15335919 4287515966
-0.3102583 0.014751979 -0.15606564 4287516738
-0.31146652 0.017100668 -0.15880246 4287646786
-0.31268829 0.019478567 -0.16157016 4287907646
-0.31392387 0.021886151 -0.16436927 4287842624
-0.31517351 0.024323929 -0.1672003 4287712322
-0.31643739 0.026792441 -0.17006382 4287122751
-0.31689677 0.029056799 -0.17117463 4286269244
-0.3173579 0.031332813 -0.17228995 4285023035
-0.31782091 0.033620548 -0.17340982 4284171324
-0.31787357 0.035789337 -0.17363504 4283844671
-0.3183386 0.038096096 -0.1747603 4283978048
-0.31839153 0.040275149 -0.17498657 4284636227
-0.31929952 -0.046911709 -0.17734006 4285755215
-0.31808528 -0.044736478 -0.17479709 4284241216
-0.31730014 -0.042602509 -0.17319097 4285620553
-0.31610921 -0.040467259 -0.1706969 4287791453
-0.31452614 -0.038342848 -0.16734441 4288579939
-0.31296712 -0.03624779 -0.16404293 4286675034
-0.31143159 -0.034181319 -0.16079129 4284241995
-0.31030706 -0.03214176 -0.15843756 4285292621
-0.30842876 -0.030131744 -0.15443312 4287593827
-0.30696052 -0.028147379 -0.15132444 4287986280
-0.30588529 -0.026177246 -0.14907497 4286605926
-0.30482185 -0.024225805 -0.14685029 4284904049
-0.30376998 -0.022292726 -0.14465001 4284253562
-0.30309075 -0.020355539 -0.14326519 4285173365
-0.30241644 -0.018429514 -0.1418906 4286354033
-0.30174699 -0.016514501 -0.14052606 4286681973
-0.30143747 -0.014578071 -0.13995014 4285304196
-0.30148426 -0.012610018 -0.1401554 4283470743
-0.30153111 -0.010639193 -0.14036097 4282882460
-0.30157802 -0.0086656632 -0.14056683 4283868323
-0.30162498 -0.0066893278 -0.14077297 4286559915
-0.30202872 -0.0046602343 -0.14176252 4284655271
-0.30207592 -0.0026748469 -0.14196961 4283338895
-0.30248138 -0.00062935962 -0.14296372 4284252539
-0.30288833 0.0014262594 -0.14396168 4286405460
-0.30402264 0.0036225852 -0.14655827 4287780162
-0.3048017 0.0057758698 -0.1483755 4287057476
-0.30632856 0.0080958363 -0.15183751 4286005044
-0.3075006 0.010373651 -0.15452111 4285545262
-0.30868572 0.012679523 -0.15723465 4285546541
-0.30988407 0.015013949 -0.15997864 4285874483
-0.31109586 0.017377393 -0.16275361 4286857529
-0.31232134 0.01977036 -0.16556005 4287646012
-0.31316286 0.022090109 -0.16752262 4287385151
-0.31441179 0.024538456 -0.17038327 4286400572
-0.31567502 0.027017716 -0.17327686 4285219637
-0.31613356 0.029291319 -0.17439905 4284235573
-0.31659395 0.03157663 -0.17552584 4283646265
-0.3166455 0.03374663 -0.17575219 4283845182
-0.31710786 0.03605099 -0.17688434 4284502851
-0.31757206 0.038367257 -0.17802112 4285161031
-0.31651384 -0.044743091 -0.17622519 4285225798
-0.31573373 -0.042608958 -0.17461453 4284239938
-0.31455076 -0.040473472 -0.17211325 4286146895
-0.31338134 -0.038359635 -0.16964096 4287989089
-0.31182694 -0.036260281 -0.16631678 4287989606
-0.31029603 -0.034189701 -0.1630429 4286215005
-0.30878803 -0.032147221 -0.15981816 4287069532
-0.30730242 -0.030132186 -0.15664153 4288648556
-0.30583873 -0.028144041 -0.1535119 4288975472
-0.30476668 -0.02617017 -0.15124728 4288247396
-0.30370638 -0.024215059 -0.14900763 4286736225
-0.30265763 -0.022278417 -0.14679262 4285165417
-0.30162027 -0.020359935 -0.14460176 4284054391
-0.30095023 -0.018433738 -0.14322332 4283662464
-0.30028501 -0.016518556 -0.14185496 4284122759
-0.30033079 -0.014549552 -0.14206125 4284650645
-0.30037662 -0.012577831 -0.14226785 4283605153
-0.30042255 -0.010603363 -0.14247471 4283144859
-0.3004685 -0.0086261164 -0.14268188 4284260774
-0.30086985 -0.0065994617 -0.14367735 4286625454
-0.30127272 -0.0045627495 -0.14467666 4284388759
-0.30131906 -0.0025701206 -0.14488544 4283730565
-0.30172354 -0.00051694666 -0.14588925 4285624168
-0.3021296 0.0015464152 -0.146897 4287261007
-0.3032628 0.0037514961 -0.14951992 4286998604
-0.30404091 0.0059132189 -0.15135543 4285616963
-0.30593976 0.0083178869 -0.15568155 4284035110
-0.30711511 0.010609673 -0.15840219 4283248160
-0.30830359 0.012929823 -0.16115338 4283381283
-0.30911949 0.015189612 -0.16307774 4283840809
-0.31033045 0.017563036 -0.16588147 4285020463
-0.31155512 0.019966209 -0.16871712 4285874995
-0.31239587 0.022295613 -0.17070001 4285481779
-0.313243 0.024645695 -0.17269821 4284366385
-0.31409666 0.027016677 -0.17471197 4283579951
-0.31495693 0.029408777 -0.17674142 4283515702
-0.31541482 0.031698879 -0.17787586 4284042815
-0.31546533 0.033873197 -0.17810369 4284963910
-0.31592518 0.036182377 -0.17924353 4285884237
-0.3153559 -0.044773031 -0.17857631 4285819731
-0.31457767 -0.042634487 -0.1769544 4283978819
-0.31339797 -0.040494613 -0.17443585 4284241729
-0.3122319 -0.038376447 -0.17194647 4286674518
-0.31107917 -0.036279578 -0.16948576 4288121958
-0.309156 -0.034198117 -0.1653032 4288056684
-0.30803797 -0.0321505 -0.1629173 4288516459
-0.30617166 -0.030132655 -0.15885833 4289042543
-0.30471256 -0.028140659 -0.15570755 4289174385
-0.30364367 -0.026163058 -0.15342769 4288909164
-0.30258659 -0.024204277 -0.15117303 4288116065
-0.30117998 -0.02228296 -0.14813571 4286735963
-0.3005068 -0.020342011 -0.14673771 4285099881
-0.29983851 -0.018412266 -0.14535001 4283466625
-0.29917511 -0.016493609 -0.14397259 4283799442
-0.29921994 -0.014520956 -0.14418021 4285245346
-0.29926485 -0.012545525 -0.14438811 4283737255
-0.2996636 -0.010527642 -0.14538878 4283275674
-0.29970872 -0.008543184 -0.14559764 4283996835
-0.30010912 -0.0065089464 -0.14660278 4284523175
-0.30051103 -0.0044645946 -0.14761192 4283862411
-0.30055648 -0.0024646134 -0.14782242 4284973942
-0.30096006 -0.00040372423 -0.14883611 4286605916
-0.30136514 0.0016674476 -0.14985377 4286410070
-0.30249724 0.0038813497 -0.15250325 4284833096
-0.30438086 0.0062646936 -0.15684055 4283583288
-0.30554646 0.0085423952 -0.15956829 4282788129
-0.30672508 0.010848312 -0.16232665 4282593824
-0.30753398 0.013097577 -0.16425605 4282793001
-0.30834901 0.015366579 -0.16620015 4283186990
-0.30955905 0.017750071 -0.16903302 4283711024
-0.31038952 0.020063903 -0.17101403 4283775529
-0.31122631 0.022398276 -0.17301039 4283447336
-0.31206954 0.024753351 -0.17502221 4283120943
-0.31332195 0.027243664 -0.17795551 4283582777
-0.31377551 0.02952672 -0.17909297 4284634948
-0.31300771 -0.042640947 -0.17838116 4284965959
-0.31224054 -0.040515833 -0.17676757 4283453761
-0.3110778 -0.038393322 -0.174261 4285161543
-0.30992842 -0.036292199 -0.1717834 4287397979
-0.30801141 -0.034206562 -0.16757227 4288252775
-0.30689666 -0.032154895 -0.16517012 4288713837
-0.30503646 -0.030133097 -0.16108364 4289107822
-0.30432901 -0.028120264 -0.15959863 4289107567
-0.30288517 -0.026143832 -0.15644948 4289041517
-0.30146244 -0.024193449 -0.15334652 4288908651
-0.30006045 -0.022268604 -0.15028886 4288117602
-0.29938906 -0.020324048 -0.14888154 4286606173
-0.29872259 -0.018390741 -0.14748463 4284775026
-0.29841313 -0.016439365 -0.14689456 4284979854
-0.29845712 -0.014459476 -0.14710386 4286490526
-0.29850116 -0.012476825 -0.14731346 4283931551
-0.29889897 -0.010451406 -0.14832395 4283143575
-0.29894325 -0.0084596258 -0.14853449 4283405206
-0.29934266 -0.0064177546 -0.14954957 4283469711
-0.29974359 -0.0043657268 -0.15056857 4284254078
-0.29978821 -0.0023583707 -0.15078077 4285954402
-0.30019081 -0.00028967945 -0.15180448 4285949515
-0.3005949 0.0017893583 -0.15283218 4284370505
-0.30209056 0.0040792087 -0.15633537 4282923834
-0.3036083 0.0064056176 -0.15989044 4282202155
-0.30477285 0.0086926809 -0.16264614 4282264612
-0.30595046 0.01100817 -0.16543289 4282923043
-0.3067584 0.013266575 -0.16738208 4283186729
-0.30757248 0.015544873 -0.1693462 4283581492
-0.30839273 0.017843261 -0.1713254 4284041530
-0.30921927 0.020161983 -0.17331988 4283647282
-0.3104471 0.02260612 -0.17622715 4283319346
-0.31128943 0.024971114 -0.17825988 4283912254
-0.31213829 0.027357263 -0.18030855 4285161547
-0.31184363 -0.042666618 -0.18073332 4286476627
-0.31067532 -0.040522106 -0.17819004 4284700995
-0.30991906 -0.038410291 -0.17658469 4283912000
-0.30877307 -0.036304899 -0.17409007 4285949771
-0.30686226 -0.034215037 -0.16985013 4287792479
-0.30575085 -0.032159302 -0.16743156 4288713575
-0.30389681 -0.030133568 -0.16331738 4289042284
-0.30319121 -0.028116839 -0.1618223 4288977006
-0.3021208 -0.026124462 -0.1594937 4289108333
-0.30069748 -0.024166917 -0.15635806 4289173614
-0.29929489 -0.022235109 -0.15326837 4288713582
-0.29862282 -0.020283502 -0.15184608 4287857767
-0.29795569 -0.01834321 -0.15043435 4286479719
-0.29764548 -0.016384732 -0.14983784 4286157438
-0.2976886 -0.014397552 -0.15004885 4286881174
-0.29773182 -0.012407602 -0.15026014 4284060054
-0.29812858 -0.010374592 -0.15128052 4283076497
-0.29817197 -0.0083754957 -0.15149277 4283272848
-0.29857042 -0.0063259257 -0.15251786 4283926916
-0.29897037 -0.0042661433 -0.1535469 4285494632
-0.29901412 -0.0022513603 -0.15376082 4284767556
-0.29941571 -0.00017480286 -0.15479462 4283840805
-0.29981884 0.0019121598 -0.15583247 4284433975
-0.30131325 0.0042114556 -0.15937145 4282727230
-0.30282977 0.0065475767 -0.16296299 4282596647
-0.30361897 0.0087670805 -0.16488899 4281937963
-0.30479124 0.011087458 -0.16769448 4282133536
-0.30559531 0.013350547 -0.16965678 4282724896
-0.30678988 0.015724519 -0.17251614 4283252524
-0.3076092 0.018032413 -0.17451578 4283977528
-0.30843475 0.020360796 -0.17653088 4284239932
-0.30926669 0.022709936 -0.17856166 4284635202
-0.31010503 0.025080012 -0.18060827 4285950285
-0.30950993 -0.040543418 -0.18053398 4285753170
-0.30875561 -0.038427293 -0.17891753 4284304961
-0.30761299 -0.036317647 -0.17640574 4284371262
-0.30609527 -0.034226362 -0.17302816 4286606416
-0.30460048 -0.032163754 -0.16970176 4288317794
-0.30312809 -0.030129177 -0.16642542 4288910186
-0.30242169 -0.028104797 -0.16491419 4288779371
-0.30098188 -0.0261172 -0.16171017 4288845675
-0.29956323 -0.024155989 -0.15855347 4289173611
-0.29852349 -0.0222014 -0.1562698 4288976235
-0.29749513 -0.020265333 -0.15401129 4288318569
-0.29718301 -0.018295327 -0.15340568 4287530603
-0.29687202 -0.016329698 -0.15280259 4286483835
-0.29691431 -0.014335207 -0.15301529 4284847245
-0.2969566 -0.0123379 -0.15322833 4283207570
-0.2973524 -0.010297239 -0.15425873 4283075980
-0.2973949 -0.0082907462 -0.15447272 4283860610
-0.29779235 -0.0062334286 -0.15550786 4285166700
-0.29819131 -0.0041658324 -0.15654708 4285027396
-0.29823416 -0.0021435928 -0.15676276 4283382306
-0.29899377 5.3741991e-07 -0.15863775 4282462493
-0.29903689 0.0020358593 -0.15885483 4283316263
-0.30052999 0.0043446682 -0.16243008 4282332461
-0.30204523 0.0066905939 -0.16605857 4282789920
-0.30283341 0.0089190435 -0.16800421 4282596140
-0.30400458 0.011249074 -0.17083865 4283056436
-0.30442762 0.013434834 -0.17194019 4283647541
-0.30523378 0.015722621 -0.17393085 4283386167
-0.30604616 0.018030707 -0.17593686 4284044094
-0.30686471 0.020359244 -0.17795835 4285292360
-0.30768955 0.022708546 -0.17999558 4286607700
-0.30758741 -0.038444396 -0.18125953 4285095241
-0.3068409 -0.036337338 -0.17964473 4284107581
-0.3053222 -0.03423778 -0.17623058 4284896577
-0.30382657 -0.032167122 -0.17286842 4287133013
-0.30235338 -0.030124722 -0.16955701 4288383330
-0.30127352 -0.028101321 -0.16716065 4287069534
-0.30020574 -0.02609762 -0.1647913 4287069278
-0.29878655 -0.024129171 -0.16160126 4288384101
-0.29774624 -0.022167439 -0.15929344 4288845161
-0.29671735 -0.02022435 -0.15701115 4288713065
-0.29640445 -0.0182471 -0.15639883 4288515690
-0.29609272 -0.016274296 -0.15578905 4287991921
-0.29613411 -0.014272375 -0.1560035 4286222462
-0.29617554 -0.012267664 -0.15621825 4284058758
-0.29657033 -0.01021933 -0.15725882 4284056958
-0.29661196 -0.0082053877 -0.15747456 4285035882
-0.2970084 -0.0061402563 -0.15851991 4284109384
-0.29740632 -0.0040647867 -0.15956935 4283252520
-0.29744825 -0.0020350162 -0.15978679 4282268194
-0.29820675 0.00011752639 -0.16168073 4282465314
-0.29824895 0.0021604311 -0.16189958 4282396456
-0.29974067 0.0044788714 -0.16551146 4282530346
-0.30125463 0.0068346467 -0.16917735 4283450677
-0.30204171 0.0090721035 -0.17114289 4283584574
-0.30321175 0.011411937 -0.17400664 4284109893
-0.30363378 0.013606348 -0.1751193 4284371520
-0.30443895 0.015903613 -0.17713049 4284504645
-0.30486584 0.018124957 -0.17825599 4285753165
-0.30641451 -0.038461529 -0.18361086 4286410836
-0.30566996 -0.03635022 -0.18198487 4284635459
-0.30454302 -0.03424928 -0.17945775 4283911997
-0.30304652 -0.032170545 -0.17605931 4285226566
-0.30119726 -0.030125178 -0.17182833 4286936660
-0.30049202 -0.028089147 -0.17029032 4285818187
-0.29905641 -0.026090264 -0.16703042 4285159495
-0.29800391 -0.024102183 -0.16467181 4286278739
-0.29696304 -0.022133203 -0.16233955 4287595618
-0.29593363 -0.020183068 -0.16003315 4288384874
-0.29561999 -0.018198544 -0.15941401 4288778859
-0.29530752 -0.016218457 -0.1587975 4288778861
-0.29534802 -0.014209087 -0.1590137 4287992177
-0.29538858 -0.012196952 -0.15923019 4286877042
-0.29578233 -0.010140819 -0.160281 4286217064
-0.29582307 -0.0081193978 -0.16049848 4284372558
-0.29621845 -0.0060464041 -0.1615542 4282794031
-0.29661533 -0.003963002 -0.162614 4282333473
-0.29701376 -0.0018691061 -0.16367802 4282269213
-0.29741371 0.00023534792 -0.16474631 4282267682
-0.29853946 0.002480156 -0.16753198 4282924080
-0.29894531 0.0046140365 -0.16861589 4282929724
-0.30045792 0.0069798045 -0.17231959 4283979071
-0.30124384 0.0092263492 -0.1743053 4284373314
-0.30203578 0.011492741 -0.17630625 4284373062
-0.30245531 0.013691594 -0.17742634 4285226568
-0.30325645 0.01599369 -0.17945108 4286542164
-0.30410469 -0.03635617 -0.18340744 4285819725
-0.30298561 -0.034255065 -0.1808732 4284241473
-0.30187935 -0.032175023 -0.17836812 4284108606
-0.30041045 -0.030120715 -0.17499843 4284963138
-0.2993333 -0.028085623 -0.17255996 4284239674
-0.29790261 -0.026082914 -0.16927806 4283713081
-0.29685348 -0.024090998 -0.16690357 4284962118
-0.29617381 -0.022098737 -0.1654083 4287002971
-0.29514393 -0.020141475 -0.1630775 4288450922
-0.29482955 -0.018149607 -0.16245154 4288910188
-0.29451638 -0.016162209 -0.16182816 4288975211
-0.29455596 -0.014145367 -0.16204613 4288646762
-0.29459563 -0.012125717 -0.16226438 4287529572
-0.29498833 -0.010061762 -0.16332555 4285359184
-0.29502815 -0.0080327801 -0.16354482 4283187764
-0.29542249 -0.0059518619 -0.16461091 4282333477
-0.29581833 -0.0038604664 -0.16568129 4282203424
-0.29621568 -0.0017585122 -0.16675584 4282334499
-0.29661456 0.00035407144 -0.1678347 4282794548
-0.2973763 0.0025425749 -0.16978177 4283321152
-0.29814377 0.0047502462 -0.17174363 4283849029
-0.29965496 0.0071260519 -0.17548564 4284570693
-0.30043977 0.0093817264 -0.17749171 4284570693
-0.30085513 0.011573807 -0.17861474 4285489995
-0.30142799 -0.034260813 -0.18228884 4285424714
-0.30032951 -0.032180611 -0.1797767 4284174655
-0.2992436 -0.030121164 -0.17729338 4283713337
-0.29816997 -0.028082078 -0.17483835 4283187760
-0.29710844 -0.026063055 -0.17241117 4282925363
-0.2960588 -0.024063716 -0.17001137 4284501824
-0.29537851 -0.022064017 -0.16850002 4287134298
