# .PCD v0.7 - Point Cloud Data file format
VERSION 0.7
FIELDS x y z rgba
SIZE 4 4 4 4
TYPE F F F U
COUNT 1 1 1 1
WIDTH 998
HEIGHT 1
VIEWPOINT 0 0 0 1 0 0 0
POINTS 998
DATA ascii
-0.31668848 0.039733555 -0.030251551 4291468664
-0.32229811 0.043334357 -0.038901448 4291600250
-0.32679662 0.046641074 -0.045854978 4291537283
-0.34141329 -0.0042035733 -0.069269799 4291846965
-0.33905739 -0.0026379696 -0.065731108 4291193402
-0.33752313 -0.0010016754 -0.063452229 4287255098
-0.33486366 0.00046013377 -0.059444785 4285749309
-0.33263654 0.0019447168 -0.056099646 4285879612
-0.33081844 0.0034585418 -0.053381491 4286403900
-0.3283098 0.0048362063 -0.04960129 4287978556
-0.32691395 0.0063624489 -0.047529541 4290207027
-0.32659006 0.008056147 -0.047104504 4290073640
-0.32521603 0.0095550995 -0.045064963 4289742890
-0.32385913 0.011037792 -0.043051008 4289874744
-0.32285988 0.012572066 -0.041586246 4291260743
-0.32186991 0.014094542 -0.040135238 4290873695
-0.32022092 0.015462476 -0.037669625 4290739800
-0.31892562 0.016884863 -0.035747316 4290674012
-0.31699765 0.018143542 -0.032850474 4290676069
-0.31542227 0.019457523 -0.030495232 4290745968
-0.31449971 0.02090873 -0.029144321 4290877556
-0.31327295 0.02227024 -0.02732444 4291009654
-0.3123695 0.023698669 -0.026001811 4290877812
-0.31208897 0.02528231 -0.025638508 4291008887
-0.31242603 0.027034447 -0.02622702 4291207035
-0.31245434 0.028705845 -0.026339876 4291534971
-0.31279257 0.030470347 -0.02693064 4291468921
-0.31282103 0.032148939 -0.027043968 4291206008
-0.31347209 0.034022141 -0.028117878 4290943092
-0.31412712 0.035908867 -0.02919833 4290942834
-0.31510261 0.037912037 -0.030773846 4290942062
-0.31802365 0.040579971 -0.035353236 4291335016
-0.31969428 0.042870536 -0.038004052 4291464545
-0.32725406 0.047243349 -0.049750268 4291527767
-0.34202808 -0.0058569489 -0.073507831 4291328601
-0.34084588 -0.0041281939 -0.071756534 4291913524
-0.33848685 -0.0025579738 -0.068181932 4290341177
-0.33734012 -0.00086650194 -0.066483803 4286927676
-0.3339082 0.00049729698 -0.061244182 4286666558
-0.3320581 0.0020377708 -0.058453891 4286141756
-0.33023793 0.0035558632 -0.055708818 4285945403
-0.32772684 0.004936967 -0.051891424 4286535230
-0.3270404 0.0065868357 -0.050902076 4288633912
-0.32600448 0.0081665311 -0.049370263 4289747508
-0.32462892 0.0096696299 -0.047310885 4289743403
-0.32292649 0.011090525 -0.044743489 4289677099
-0.32192916 0.012627064 -0.043269414 4290534972
-0.32060432 0.014082002 -0.041286312 4291068250
-0.31929582 0.015521486 -0.039327733 4290937178
-0.3180033 0.0169458 -0.037393205 4290673237
-0.31607991 0.018205982 -0.034477852 4290672469
-0.31482616 0.019597497 -0.0326018 4290543965
-0.31421879 0.021130536 -0.031729545 4290742118
-0.31330079 0.022576733 -0.030374065 4290876013
-0.31270254 0.024094235 -0.029515246 4290614640
-0.31304264 0.025857994 -0.030115431 4290745713
-0.31275779 0.02745501 -0.029743716 4290942579
-0.31278545 0.029138973 -0.029858202 4291205236
-0.31312579 0.030917367 -0.03045937 4291270771
-0.31346717 0.032703441 -0.031062515 4290941552
-0.31380966 0.03449725 -0.031667627 4290677866
-0.31415316 0.036298841 -0.032274663 4290873192
-0.31513375 0.038315892 -0.033874311 4290939747
-0.31676894 0.040569708 -0.036494602 4291399263
-0.31842911 0.042860314 -0.039154936 4291131729
-0.32145882 0.045659956 -0.043951157 4291587386
-0.32284892 0.04792222 -0.046193399 4291066188
-0.34186608 -0.0057435865 -0.076666005 4291587660
-0.34067771 -0.0040064678 -0.074890606 4291848758
-0.33791229 -0.0024774717 -0.070649341 4289423675
-0.33676362 -0.00078061875 -0.068934068 4286534717
-0.33332801 0.00058655482 -0.063641787 4287193156
-0.33147573 0.002131439 -0.060823731 4286272832
-0.32965341 0.0036538152 -0.058051407 4285813822
-0.32713997 0.0050383476 -0.054196432 4285945149
-0.3268097 0.0067535746 -0.053756777 4286862652
-0.32541499 0.0082776416 -0.051650602 4288632377
-0.32403791 0.009784909 -0.049571212 4289680177
-0.32199076 0.011143425 -0.046441454 4289613098
-0.32099533 0.012682236 -0.044957969 4290336304
-0.31967336 0.014139208 -0.042962186 4290537028
-0.31803691 0.015509146 -0.040472746 4290738261
-0.31707793 0.01700693 -0.039044283 4290739030
-0.31548107 0.018343305 -0.036614981 4290802255
-0.31422633 0.019738305 -0.034721248 4290541138
-0.31330186 0.021197202 -0.033344813 4290607190
-0.31269911 0.022725634 -0.032472581 4290739546
-0.31210002 0.024247343 -0.031605747 4290675293
-0.31212685 0.025931675 -0.031721022 4290545250
-0.31215367 0.027618404 -0.031836491 4290676582
-0.31186888 0.029217659 -0.03146261 4290807399
-0.31189576 0.030906612 -0.031578209 4290742373
-0.31223446 0.032692824 -0.03218383 4290806880
-0.31257424 0.03448673 -0.032791406 4290805852
-0.31291503 0.036288403 -0.033400927 4290871134
-0.31388915 0.038305558 -0.03500646 4291201117
-0.31551406 0.040559411 -0.037636127 4291397724
-0.31716377 0.042850073 -0.040305991 4290536771
-0.32017496 0.045649718 -0.045119058 4290665007
-0.32155615 0.047912046 -0.047369424 4291258164
-0.32192552 0.049825553 -0.048028342 4291066446
-0.34335318 -0.0054534366 -0.082460254 4291782979
-0.34010252 -0.0039298073 -0.077418014 4291717432
-0.33733359 -0.0023963989 -0.07313358 4288439870
-0.33618304 -0.00069413288 -0.071400926 4286141756
-0.33312401 0.00072881859 -0.066655487 4286471747
-0.33126336 0.002280267 -0.063799739 4286273601
-0.32943299 0.0038089624 -0.060990542 4285881162
-0.32799554 0.005374271 -0.058800731 4285748285
-0.32657659 0.0069219493 -0.056639157 4285879100
-0.32482153 0.0083894348 -0.053945705 4286927418
-0.32309425 0.009836196 -0.051294893 4289024308
-0.32139409 0.011262724 -0.048685856 4289680174
-0.32005841 0.012737565 -0.046651941 4290139690
-0.3187393 0.014196585 -0.044643443 4290467125
-0.31743646 0.01564003 -0.042659771 4290405184
-0.31614956 0.017068233 -0.040700551 4290738006
-0.31455645 0.018406298 -0.038255841 4290738001
-0.31362262 0.019879969 -0.036853656 4290605644
-0.31301349 0.021421643 -0.035964943 4290670927
-0.31240803 0.022956414 -0.035081703 4290540112
-0.31211972 0.024567645 -0.034700502 4290606159
-0.31214583 0.026262226 -0.034817282 4290672208
-0.312172 0.027959168 -0.034934215 4290738004
-0.31188455 0.029567633 -0.034554269 4290672725
-0.31222439 0.031360261 -0.035168611 4290672726
-0.31225064 0.03306438 -0.03528605 4290738516
-0.31259155 0.034869764 -0.035902731 4290869590
-0.31261796 0.036581274 -0.036020674 4291199835
-0.31327668 0.038504098 -0.037142199 4291332701
-0.31490096 0.040766418 -0.039796803 4290999630
-0.31557369 0.042727385 -0.040942088 4290205493
-0.31723315 0.045051344 -0.043654706 4289941546
-0.318252 0.04717195 -0.045351211 4290730794
-0.31861192 0.049066715 -0.046001751 4291388982
-0.31863928 0.050843287 -0.046124175 4291329360
-0.34319484 -0.0053360029 -0.085720256 4291978300
-0.3411535 -0.0036653345 -0.082558066 4291651128
-0.33714679 -0.0022661865 -0.07626529 4287784000
-0.33559841 -0.00060709275 -0.073884614 4285814076
-0.33291778 0.00087249849 -0.069699407 4285814334
-0.33104873 0.0024305687 -0.066805318 4286405695
-0.32921016 0.0039656633 -0.06395866 4286602826
-0.32776627 0.0055377092 -0.061739754 4286011457
-0.3259809 0.007030502 -0.058975484 4285748282
-0.32422408 0.0085019721 -0.056255575 4285748027
-0.32249516 0.0099525349 -0.053578936 4287123256
-0.32045111 0.011316144 -0.050398368 4289090098
-0.31945646 0.012861613 -0.048891019 4290074155
-0.31813613 0.014324487 -0.046863154 4290598444
-0.3168321 0.01577175 -0.044860482 4290400816
-0.31554413 0.017203633 -0.042882573 4290535744
-0.31427187 0.018620465 -0.040928956 4290801232
-0.3133342 0.020100018 -0.039508983 4290999886
-0.31272233 0.021648116 -0.038609032 4290932811
-0.31243044 0.023271205 -0.03822023 4290473547
-0.31213948 0.024891805 -0.037832756 4290538824
-0.31248125 0.026683813 -0.03845701 4290866244
-0.31250674 0.028393703 -0.038575642 4290997576
-0.31221575 0.030013768 -0.038188133 4290670412
-0.31255779 0.031820722 -0.038813408 4290605390
-0.31258336 0.033537868 -0.038932547 4290736720
-0.31260896 0.035257433 -0.039051857 4290738774
-0.31295219 0.037082333 -0.039679907 4290869848
-0.31266028 0.038703829 -0.039290987 4291063887
-0.3139624 0.040865231 -0.041455757 4290403135
-0.31430987 0.042717151 -0.04209175 4289941547
-0.31498203 0.044692673 -0.043248553 4289809449
-0.31598493 0.046801999 -0.044936199 4290073127
-0.31601119 0.048565295 -0.045058534 4290993962
-0.31603751 0.050331119 -0.045181051 4291391031
-0.31444019 0.051466607 -0.042698804 4291659346
-0.34303463 -0.0052173762 -0.089014642 4292239672
-0.34139606 -0.0034912087 -0.086471856 4291455033
-0.33695787 -0.0021346137 -0.079429127 4287521087
-0.33540198 -0.00046789364 -0.077015907 4285748796
-0.33270928 0.0010176186 -0.07277403 4285683003
-0.33083171 0.0025823328 -0.069840953 4286076988
-0.32861406 0.0040662428 -0.066359632 4286733633
-0.32753456 0.0057027196 -0.064707756 4286013763
-0.32574144 0.0072015813 -0.061906878 4285945661
-0.3239772 0.0086788693 -0.059151199 4285683005
-0.3222411 0.010135106 -0.056439582 4285747514
-0.32018885 0.011503549 -0.053217702 4287450935
-0.31885055 0.012986403 -0.051144276 4289549618
-0.31752896 0.014453182 -0.049096871 4290533162
-0.31655478 0.01597706 -0.04760842 4290335017
-0.31526172 0.017414419 -0.045605261 4290335021
-0.31430849 0.018913113 -0.044149198 4290991161
-0.31336406 0.020400487 -0.042706627 4290732348
-0.31306762 0.022038022 -0.042308681 4290667842
-0.31277213 0.023673022 -0.041912083 4290668872
-0.31247759 0.025305426 -0.041516904 4290932551
-0.31282157 0.027111825 -0.042152282 4291194693
-0.31284636 0.028834866 -0.042272627 4291261768
-0.3125518 0.030466681 -0.041877415 4291131986
-0.31289601 0.03228822 -0.042513844 4290999634
-0.31260145 0.033919673 -0.042118609 4290670416
-0.3119902 0.035447665 -0.041211475 4290471751
-0.31233269 0.037278537 -0.041845515 4290600257
-0.31172329 0.038798951 -0.040940989 4290467903
-0.31174818 0.040528566 -0.0410618 4289875504
-0.31272623 0.042594861 -0.042724561 4289743908
-0.31275126 0.044337265 -0.042846274 4289808678
-0.31341678 0.046317302 -0.044004574 4289941029
-0.31344199 0.048069976 -0.044127002 4290205223
-0.3134672 0.049825151 -0.044249602 4290995499
-0.31285185 0.051331639 -0.043334819 4291655481
-0.31287709 0.053086463 -0.043457393 4291792469
-0.34245193 -0.0051429197 -0.091662087 4292370999
-0.34081072 -0.0034111585 -0.089092895 4291389500
-0.33676681 -0.00200172 -0.08262562 4287387966
-0.33480927 -0.0003793482 -0.079540022 4285814076
-0.33211356 0.0011102372 -0.075255185 4285617212
-0.33061236 0.0027356411 -0.072907113 4285683002
-0.3295058 0.0044006938 -0.071198784 4286142529
-0.32730034 0.0058693779 -0.067705125 4286344525
-0.32586232 0.007436886 -0.065456428 4286536772
-0.32372773 0.0088574728 -0.06207503 4285945664
-0.32198432 0.010319407 -0.059327826 4285485884
-0.32026866 0.011760576 -0.056624383 4285943098
-0.31892052 0.013251299 -0.054517265 4287583031
-0.31758931 0.014725743 -0.052436691 4289747248
-0.31660789 0.016257981 -0.050924134 4290073388
-0.31530556 0.017702632 -0.04888878 4290203173
-0.31434536 0.019209368 -0.047409356 4290660901
-0.31307095 0.020625241 -0.045417778 4290399786
-0.31341803 0.022433916 -0.046065304 4290597165
-0.31311888 0.024080949 -0.045660768 4290859825
-0.31282064 0.025725376 -0.045257598 4290993202
-0.31316692 0.0275464 -0.04590445 4291125048
-0.313191 0.029282788 -0.04602655 4291126331
-0.31257141 0.030831784 -0.045099463 4291389506
-0.31323928 0.03276287 -0.046271257 4291322431
-0.31261957 0.034306113 -0.045343768 4290730554
-0.31168517 0.03574058 -0.043902479 4290335538
-0.31234735 0.037685182 -0.045065783 4290466867
-0.31109896 0.039000489 -0.043111417 4289942326
-0.31143978 0.040844578 -0.043750484 4289678118
-0.31242001 0.042921901 -0.045433994 4289612065
-0.31212458 0.044556987 -0.045034919 4289808673
-0.31246856 0.046425439 -0.045680363 4289875237
-0.31281367 0.048302062 -0.046327919 4290007081
-0.31219748 0.049815428 -0.045404684 4290337065
-0.31158507 0.051322095 -0.04448723 4291062575
-0.31097639 0.052822102 -0.043575451 4291591997
-0.31100067 0.054574195 -0.043698657 4291791957
-0.34228593 -0.0050221994 -0.095017225 4292306230
-0.34063625 -0.0032820527 -0.092412002 4291192893
-0.3386001 -0.0016145635 -0.089172781 4287189825
-0.33460671 -0.0002378007 -0.082727268 4285682748
-0.33151367 0.0012034805 -0.077753283 4285551676
-0.33001044 0.0028338188 -0.075381517 4285486138
-0.32890233 0.0045040525 -0.073656037 4285617730
-0.32743379 0.0060988581 -0.071339071 4286409041
-0.32561913 0.0076119225 -0.068453617 4286997321
-0.32383397 0.0091028996 -0.065615185 4286732352
-0.32207757 0.010572404 -0.06282258 4285880383
-0.32034928 0.01202089 -0.060074825 4285550396
-0.31864843 0.013448921 -0.057370767 4286075191
-0.31765023 0.015001737 -0.055818845 4287911987
-0.31666145 0.016542405 -0.0542817 4289615409
-0.31568199 0.018071078 -0.052759141 4290203686
-0.31471169 0.019587945 -0.051250964 4290268192
-0.31407762 0.021173969 -0.05029453 4290267939
-0.31377375 0.022835942 -0.049880337 4290463774
-0.31347078 0.024495209 -0.049467545 4290529052
-0.31316879 0.026151806 -0.049056232 4290660891
-0.31351742 0.027987693 -0.049714766 4290792482
-0.31321543 0.029643808 -0.049303401 4290662441
-0.31259105 0.031201355 -0.048361387 4290990637
-0.3129378 0.033046711 -0.049017359 4292366636
-0.31231529 0.034596346 -0.048077952 4291711789
-0.31105852 0.03593377 -0.046093803 4290399787
-0.31171992 0.037885036 -0.047268149 4290073393
-0.31078738 0.039310351 -0.045817044 4289678123
-0.31081066 0.041053392 -0.045940425 4289546019
-0.31179008 0.043138169 -0.047639988 4289546018
-0.31149381 0.044778075 -0.047237147 4289743136
-0.31215775 0.046771869 -0.04841771 4289743908
-0.31186053 0.048413686 -0.048013397 4289809960
-0.31092754 0.049805705 -0.046559948 4289942058
-0.31031811 0.051312525 -0.045639809 4290272810
-0.30939922 0.05268582 -0.04420846 4291260722
-0.30911034 0.054306295 -0.043816704 4291459647
-0.30851197 0.055793352 -0.042913675 4291463769
-0.34127349 -0.0049924706 -0.097013496 4292176182
-0.33962706 -0.00324934 -0.094390713 4290932032
-0.33800358 -0.0015278442 -0.091804527 4287127114
-0.33361113 -0.00020044891 -0.084640548 4285748028
-0.33129495 0.0013519913 -0.080905639 4285616954
-0.33016631 0.0030468928 -0.079132721 4285420601
-0.32791927 0.0045487676 -0.075509094 4285486399
-0.32645386 0.006146051 -0.073176898 4286408015
-0.32500771 0.0077248835 -0.070875518 4287523411
-0.32322082 0.0092199519 -0.068008967 4287453764
-0.32181674 0.010760913 -0.06577491 4286208321
-0.32043079 0.012284558 -0.063569829 4285552193
-0.31940868 0.013862989 -0.061966453 4285551417
-0.31839642 0.015428794 -0.060378592 4286206772
-0.31739378 0.016982211 -0.058805984 4288370226
-0.31640068 0.018523401 -0.057248455 4289943342
-0.31575137 0.020132871 -0.056260277 4290203428
-0.31543961 0.021817617 -0.055831514 4290268443
-0.31512886 0.023499547 -0.055404257 4290203169
-0.3148191 0.025178671 -0.054978475 4290137118
-0.31417993 0.0267647 -0.054005835 4290530590
-0.31453303 0.028621754 -0.054680165 4290661407
-0.31422526 0.030295091 -0.054257371 4290465571
-0.31326261 0.031769998 -0.052746639 4290531369
-0.31328523 0.033533167 -0.05287227 4292497448
-0.31233144 0.03499116 -0.051375281 4291777325
-0.31106594 0.0363345 -0.049359437 4290333228
-0.31173059 0.038299158 -0.050551958 4289677356
-0.31079134 0.039731454 -0.049077664 4289545763
-0.31081387 0.041485321 -0.049202632 4289480226
-0.31179848 0.043585096 -0.050928589 4289415203
-0.31085902 0.045000497 -0.04945308 4289612322
-0.31152216 0.047001258 -0.050644916 4289678627
-0.31090429 0.048525658 -0.04970425 4289744681
-0.30997336 0.049919441 -0.048241649 4289810987
-0.30873781 0.051178005 -0.046270888 4289943082
-0.30782661 0.052549958 -0.044839673 4290930994
-0.30753964 0.054168314 -0.044448387 4291129914
-0.30694598 0.055653676 -0.043545637 4291000645
-0.3066617 0.057265043 -0.043158401 4291400801
-0.34407109 -0.0065125222 -0.10527424 4291918934
-0.34067768 -0.0049164281 -0.099717975 4292045368
-0.33902869 -0.0031675978 -0.097067811 4290605637
-0.33699384 -0.0014920743 -0.093772903 4287656791
-0.33499423 0.00015711038 -0.090535067 4286075198
-0.33068672 0.0014468137 -0.083444402 4285747768
-0.32917452 0.0030895111 -0.081016093 4286141497
-0.32730702 0.0046531102 -0.077993445 4285682748
-0.32583988 0.0062551294 -0.075637899 4286209863
-0.32439211 0.0078385826 -0.073313616 4287459925
-0.32260343 0.0093377465 -0.070418589 4287128912
-0.3211979 0.010883077 -0.068162538 4286665793
-0.32016125 0.012481191 -0.066522039 4286013000
-0.31913462 0.014066396 -0.06489756 4285552446
-0.31846303 0.015713716 -0.063866153 4285485624
-0.31779581 0.017353009 -0.062841594 4286534454
-0.31747484 0.019064164 -0.062395938 4288698163
-0.31681401 0.020689957 -0.061381284 4289877035
-0.3182064 0.022820218 -0.063803859 4290335007
-0.31719911 0.024355901 -0.062208965 4290400802
-0.31620139 0.025879474 -0.060629394 4290138149
-0.31554887 0.027483458 -0.059627406 4290466086
-0.31523517 0.029174695 -0.059192881 4290531109
-0.31458881 0.030765753 -0.058200479 4290333986
-0.31361598 0.032250114 -0.056660216 4290267938
-0.31330836 0.03392553 -0.056234937 4290856736
-0.31234762 0.035390887 -0.054713782 4290594339
-0.3110733 0.03674021 -0.052665677 4290005288
-0.31174114 0.038718428 -0.053876653 4289612328
-0.31079519 0.040157758 -0.052378695 4289611552
-0.31146124 0.042148501 -0.053587303 4289480222
-0.31180674 0.044037532 -0.054258119 4289415200
-0.31150496 0.045696609 -0.05384177 4289546529
-0.31056166 0.047111448 -0.052346997 4289744419
-0.3099449 0.048637971 -0.051400434 4289744934
-0.30901602 0.050033487 -0.049928673 4289876521
-0.30778354 0.051293403 -0.047945529 4290074924
-0.306566 0.052540589 -0.045986474 4290538038
-0.30597347 0.054030769 -0.045078386 4290933820
-0.30538452 0.055514451 -0.044175871 4291066435
-0.30479914 0.056991708 -0.043278981 4291203413
-0.34347543 -0.0064407694 -0.10805649 4291981640
-0.34049979 -0.0047932393 -0.10315254 4291914553
-0.33884227 -0.0030358634 -0.10046498 4289884998
-0.33679745 -0.0013525505 -0.097123951 4288577112
-0.33478808 0.00030415464 -0.093841024 4286472008
-0.3304615 0.001597832 -0.086653076 4285747513
-0.32894218 0.0032479854 -0.08419162 4286731577
-0.32631597 0.0046982695 -0.079863407 4286404155
-0.32485199 0.0063027926 -0.077492401 4285814077
-0.32340741 0.0078886691 -0.075152881 4286342727
-0.32198182 0.0094563086 -0.072844267 4286605903
-0.32057482 0.011006036 -0.070565872 4286601027
-0.31953689 0.012608861 -0.06890922 4286865990
-0.31885767 0.014271796 -0.067857258 4286076222
-0.31853035 0.016002316 -0.06739898 4285683006
-0.31820413 0.017729776 -0.066942379 4285551164
-0.31787902 0.019454194 -0.066487446 4286927158
-0.31790033 0.021259582 -0.066617772 4288959280
-0.31896469 0.023329794 -0.068511114 4290073386
-0.31898618 0.025148999 -0.068642423 4290597410
-0.31865886 0.026877213 -0.068183988 4290269733
-0.31695265 0.028220614 -0.06539309 4290335013
-0.31629059 0.029835146 -0.064367354 4290334245
-0.31529483 0.031342745 -0.062776402 4290137122
-0.3139748 0.032737806 -0.060635783 4290071072
-0.31399596 0.034529049 -0.06076508 4290070045
-0.31269237 0.035900414 -0.058650799 4290005023
-0.31140509 0.037257168 -0.056563057 4289809191
-0.31207827 0.03925262 -0.057796549 4289743397
-0.31079885 0.040589333 -0.055720959 4289612066
-0.31114349 0.042479444 -0.056397881 4289546269
-0.31379062 0.045209441 -0.0609801 4289349662
-0.3111856 0.046044353 -0.056655213 4289415453
-0.309598 0.047221936 -0.054054454 4289612832
-0.30866548 0.048628043 -0.052564301 4289744162
-0.30774158 0.050023735 -0.05108802 4290007590
-0.30651596 0.051283862 -0.049098652 4290273583
-0.30530518 0.052531227 -0.047133461 4290669623
-0.30471557 0.054021552 -0.046222731 4291261756
-0.30443239 0.055635549 -0.045832366 4291527236
-0.30384806 0.05711481 -0.044929981 4291331662
-0.34287524 -0.0063684657 -0.11085901 4292241985
-0.33989543 -0.0047158129 -0.10590345 4291783482
-0.33865368 -0.0029026971 -0.10389857 4289359170
-0.33659869 -0.0012115538 -0.10051057 4288575053
-0.33457959 0.00045273663 -0.097181857 4287263571
-0.33379483 0.0022638189 -0.095950387 4285944893
-0.32909223 0.0034667524 -0.088054568 4286207549
-0.32644558 0.0049243867 -0.083652541 4287127364
-0.324599 0.0064754891 -0.080609806 4286470203
-0.32314795 0.0080682505 -0.07823883 4285748541
-0.32135591 0.0095756575 -0.075286016 4286342216
-0.31994742 0.011129795 -0.07298509 4285948494
-0.31926039 0.012808685 -0.071911953 4287324226
-0.31822795 0.014405402 -0.070249803 4287058491
-0.32036495 0.016682088 -0.073988989 4286667843
-0.32038566 0.018514967 -0.074122153 4285813824
-0.3222025 0.020774519 -0.077318504 4285812536
-0.32368195 0.022984385 -0.079941116 4287385139
-0.32480985 0.025132468 -0.08196529 4289483053
-0.3248311 0.027012579 -0.082101874 4290270250
-0.32448211 0.02879543 -0.081606612 4290204195
-0.32376659 0.030472595 -0.080485158 4290334754
-0.32269162 0.032036845 -0.07874921 4290137125
-0.31739029 0.032337181 -0.069791645 4290005541
-0.31569344 0.033644669 -0.06698928 4289939489
-0.31571397 0.035461836 -0.067121305 4289938973
-0.31471696 0.036955141 -0.065513551 4289939745
-0.3130627 0.03821722 -0.062780924 4290005798
-0.31374985 0.0402443 -0.064052559 4289808420
-0.31277165 0.041708447 -0.062475089 4289546275
-0.31446192 0.044105232 -0.065464549 4289546012
-0.31347728 0.045560803 -0.063875742 4289415453
-0.31053832 0.046274543 -0.058939081 4289350431
-0.30831337 0.047211841 -0.055223044 4289416737
-0.30738589 0.048618093 -0.053728331 4289548068
-0.30646697 0.050013978 -0.052247539 4289943592
-0.3052482 0.051274285 -0.050251957 4290011952
-0.30404416 0.052521836 -0.048280638 4290407479
-0.30376023 0.054140605 -0.047886621 4290866744
-0.30347717 0.055757008 -0.047494031 4291065147
-0.30289397 0.057238262 -0.046586085 4291331403
-0.34227043 -0.0062956391 -0.11368208 4292503101
-0.33971125 -0.0045904373 -0.10940258 4291651643
-0.33846283 -0.0027681363 -0.10736913 4288898881
-0.33681199 -0.0010159239 -0.10464422 4287980611
-0.33477581 0.00065851689 -0.10125669 4288179791
-0.33398387 0.0024816785 -0.10000325 4286472009
-0.32885623 0.0036290656 -0.091304712 4285945154
-0.32657677 0.0051535489 -0.087493278 4287196238
-0.32471573 0.0067132842 -0.084398702 4286994750
-0.32325327 0.0083152317 -0.081987463 4285683004
-0.32181025 0.0098985061 -0.079608411 4285815876
-0.32074544 0.011533609 -0.077878483 4285751630
-0.31969115 0.013155167 -0.07616578 4287126855
-0.31900066 0.014838346 -0.075078011 4287386684
-0.31866696 0.016590808 -0.074603684 4287061572
-0.31798324 0.018259682 -0.073526688 4286208838
-0.32156727 0.020932946 -0.079796731 4285550393
-0.3234143 0.023241827 -0.083078898 4285746230
-0.32380363 0.025213381 -0.083852001 4287843889
-0.32382399 0.027096763 -0.083989695 4289679919
-0.32384431 0.028982785 -0.084127605 4290204711
-0.32312751 0.030665055 -0.082994856 4290138400
-0.32205117 0.032233663 -0.081241563 4290006307
-0.3184931 0.033048976 -0.075206645 4289874730
-0.31711406 0.034471665 -0.072928146 4289808418
-0.31678694 0.036203519 -0.072463952 4289939231
-0.31611621 0.037821114 -0.071406342 4289873185
-0.3151083 0.039317753 -0.069766089 4290332958
-0.31546959 0.041264705 -0.070489824 4290071071
-0.31617573 0.043340303 -0.07180991 4289612323
-0.31516767 0.044818129 -0.070168272 4289546270
-0.31349587 0.046038073 -0.067378491 4289415199
-0.31218138 0.047365218 -0.065205105 4289350434
-0.30766115 0.047443993 -0.057485875 4289416739
-0.30610609 0.048608169 -0.054892551 4289548579
-0.30519214 0.050004221 -0.053407248 4290076201
-0.30428654 0.05139 -0.051935703 4290209072
-0.30308563 0.052638892 -0.049952064 4290471219
-0.30280182 0.054260056 -0.04955576 4290669622
-0.30251887 0.055878829 -0.049160838 4290606658
-0.30223683 0.057495229 -0.048767321 4291202136
-0.34166104 -0.0062223119 -0.11652596 4292502843
-0.33952487 -0.0044637062 -0.11293982 4291520830
-0.33784759 -0.002683054 -0.1101464 4288833604
-0.33619422 -0.00092507264 -0.1073929 4287587134
-0.33456421 0.00081078894 -0.1046785 4287785542
-0.33417532 0.0027026369 -0.10411347 4287130960
-0.32979009 0.0039738738 -0.096620955 4286078021
-0.32632795 0.0053237583 -0.090725012 4286867016
-0.32483378 0.006954296 -0.088239044 4286864199
-0.32373121 0.0086322259 -0.086431071 4285682757
-0.32227197 0.010226733 -0.084003322 4285353785
-0.3211951 0.011873939 -0.082237937 4285485884
-0.32048944 0.013581248 -0.081116237 4286601543
-0.31978852 0.015279853 -0.080002189 4286731328
-0.3198075 0.017128602 -0.080138229 4286010689
-0.31911117 0.018815054 -0.07903146 4286015050
-0.31984556 0.020833826 -0.080410898 4285551418
-0.32388586 0.023685571 -0.087538816 4285221942
-0.32578298 0.026059838 -0.090943553 4285877555
-0.32580265 0.027972138 -0.091084264 4288237362
-0.32544416 0.02978386 -0.090567179 4289943341
-0.32471132 0.031486295 -0.089398317 4290073122
-0.32473096 0.033396944 -0.089538924 4289940514
-0.31855261 0.033457816 -0.078886151 4289874216
-0.31751367 0.034995031 -0.077180035 4289743399
-0.3171823 0.036740296 -0.076706067 4289743136
-0.3161568 0.038256738 -0.075022027 4289611554
-0.31514129 0.039761066 -0.073354512 4290071585
-0.31516021 0.041603897 -0.073490135 4290138146
-0.31517917 0.043449331 -0.073625937 4289810213
-0.31383392 0.044807177 -0.071381524 4289547299
-0.31284097 0.046273623 -0.069750868 4289350178
-0.31152555 0.047603611 -0.067556389 4289416486
-0.3070046 0.047677595 -0.059762921 4289745962
-0.30513707 0.048720781 -0.056600105 4289944621
-0.30453432 0.05024308 -0.055645533 4290141741
-0.30362806 0.051632121 -0.054160066 4290405168
-0.30273008 0.053011008 -0.05268833 4290669369
-0.30244461 0.054639142 -0.052286901 4290671939
-0.30215999 0.056264848 -0.051886875 4290609487
-0.34104696 -0.0061484175 -0.11939085 4292568888
-0.33890757 -0.0043839631 -0.11576671 4291389757
-0.33765021 -0.002546099 -0.11368242 4289030982
-0.33598837 -0.0007795085 -0.11088978 4287325247
-0.33600762 0.001193805 -0.11103592 4286932033
-0.3339586 0.0028664703 -0.10756378 4287458375
-0.33234912 0.0045750551 -0.10485908 4286475083
-0.32878608 0.0059390957 -0.098733343 4286209861
-0.32495329 0.0071985973 -0.092131943 4287520333
-0.32421708 0.0089546088 -0.090950355 4286276692
-0.32311296 0.010630806 -0.089123607 4285485629
-0.32238916 0.012365688 -0.087962434 4285353274
-0.32167029 0.014091549 -0.086809278 4285815359
-0.32059193 0.015730234 -0.085025206 4287060295
-0.32097453 0.017678967 -0.085802548 4286404936
-0.31990325 0.019299498 -0.084029831 4286146892
-0.31920102 0.020992707 -0.082903832 4285750077
-0.3192192 0.0228555 -0.083041787 4285287992
-0.31887892 0.024628596 -0.082550548 4285156149
-0.31818369 0.026303628 -0.081435591 4286008884
-0.31784686 0.028067466 -0.080949821 4288501552
-0.31751117 0.029828144 -0.080465786 4289877803
-0.31717655 0.031585623 -0.079983547 4289875492
-0.31614336 0.033129517 -0.078272738 4289808674
-0.3158133 0.034875363 -0.077797659 4289875496
-0.31548429 0.036618114 -0.077324256 4289743654
-0.31481153 0.03824513 -0.07624574 4289677350
-0.31448576 0.039979145 -0.075777568 4289808676
-0.31484762 0.041946404 -0.076519854 4290597416
-0.31417915 0.043558735 -0.075447962 4290335276
-0.31317559 0.045040533 -0.073785216 4289875242
-0.31218168 0.046510678 -0.072138637 4289809699
-0.31086537 0.047843527 -0.069922872 4289812519
-0.30666146 0.04803583 -0.062614426 4289879853
-0.30478752 0.049080677 -0.059411388 4289945390
-0.3038722 0.050483398 -0.057897758 4290340916
-0.30296531 0.051875737 -0.056398213 4290736701
-0.30237108 0.053386562 -0.055449855 4290803268
-0.30208397 0.055021685 -0.055043217 4290606408
-0.30210119 0.056788057 -0.055174019 4290805330
-0.34042808 -0.0060740118 -0.12227692 4292372536
-0.33871463 -0.0042549497 -0.11937135 4291062335
-0.33745047 -0.002407646 -0.11725706 4289031242
-0.33578008 -0.00063237757 -0.1144246 4287981128
-0.33537996 0.0012935238 -0.11383355 4286997578
-0.33373928 0.0030320466 -0.11105117 4287126337
-0.33212182 0.0047486778 -0.10830833 4287521349
-0.33092821 0.006509895 -0.10631306 4286273861
-0.33094627 0.0084629096 -0.10645859 4286272837
-0.33096436 0.010418668 -0.10660435 4286275922
-0.33058131 0.012300806 -0.10604073 4286342990
-0.33059943 0.014258573 -0.10618663 4285486396
-0.33021769 0.01613611 -0.10562515 4285288508
-0.32904464 0.017838592 -0.10366254 4286997832
-0.32827541 0.019614032 -0.10241398 4287258699
-0.32144627 0.01996517 -0.090431429 4286868301
-0.31927264 0.021326922 -0.086690381 4285814593
-0.31892902 0.023111867 -0.086190425 4285485625
-0.31787059 0.024707967 -0.084423125 4285221940
-0.31717655 0.026385639 -0.08330106 4285221685
-0.31648713 0.028054886 -0.08218658 4286402608
-0.31650433 0.029915966 -0.082325272 4288893998
-0.31652158 0.031779665 -0.082464166 4289942057
-0.31548727 0.033327833 -0.080736421 4289941535
-0.31550446 0.035187606 -0.080875017 4290334759
-0.31517339 0.036938529 -0.08039514 4289941292
-0.31449741 0.038572602 -0.079302214 4290006057
-0.31451458 0.040431116 -0.07944072 4290006569
-0.31418681 0.042172819 -0.078966111 4290137641
-0.31351736 0.04378977 -0.077883735 4289941546
-0.31251281 0.045275394 -0.07620468 4290008106
-0.31151798 0.046749271 -0.074542008 4290665258
-0.3098698 0.047958765 -0.071715616 4290533929
-0.30567864 0.048149154 -0.064360268 4290272556
-0.30412179 0.0493191 -0.061692066 4290405683
-0.30351567 0.050851591 -0.06071607 4290604606
-0.30260533 0.05224878 -0.059197452 4290539841
-0.30200857 0.053765543 -0.058236957 4290342977
-0.30171975 0.055407751 -0.057825021 4290343241
-0.30173618 0.057182364 -0.057957266 4291136350
-0.33980444 -0.0059990617 -0.12518451 4292176696
-0.33851933 -0.0041245166 -0.12301581 4290999878
-0.33682191 -0.0023200191 -0.12011128 4290151519
-0.33556929 -0.00048368191 -0.11799797 4289560413
-0.33516639 0.0014525593 -0.11739822 4288247394
-0.33351737 0.0031994369 -0.11457626 4287257410
-0.33189186 0.0049241818 -0.11179462 4287323965
-0.33028933 0.0066272449 -0.1090525 4286995785
-0.33070928 0.0086574676 -0.10991841 4286010688
-0.3299222 0.010476744 -0.10863003 4286079813
-0.32993931 0.012438784 -0.10877717 4286675289
-0.32955644 0.014323571 -0.10820991 4286015555
-0.32917488 0.016204471 -0.10764483 4285288506
-0.32761103 0.017824266 -0.1049664 4285812792
-0.32606894 0.019424301 -0.10232534 4286014535
-0.32303128 0.020649068 -0.097008288 4287855965
-0.32007563 0.021843422 -0.091834955 4286403914
-0.32009217 0.023737935 -0.091977023 4286142019
-0.32047594 0.025730856 -0.092776589 4285746487
-0.32049257 0.027633883 -0.09291929 4285220918
-0.32050923 0.029539572 -0.0930622 4285351987
-0.32015857 0.031342577 -0.09254732 4286795567
-0.32017523 0.033250414 -0.092690378 4289156906
-0.31837356 0.034607355 -0.089574337 4290140199
-0.31484288 0.035393443 -0.083356395 4290007335
-0.31451085 0.03714994 -0.082871757 4289677607
-0.31383386 0.038788799 -0.081768028 4289808932
-0.31316131 0.040419612 -0.080671705 4289875752
-0.31283477 0.042161446 -0.080195971 4289812014
-0.31216878 0.043778587 -0.079110466 4290665521
-0.31116983 0.045264371 -0.077426337 4290534700
-0.31018052 0.046738457 -0.075758658 4290271018
-0.30887088 0.048074361 -0.07351435 4290402606
-0.30500913 0.048387174 -0.066680826 4290406200
-0.30345172 0.049559042 -0.063987166 4290276669
-0.30284488 0.051095635 -0.063001834 4290275643
-0.30224183 0.052625287 -0.062022813 4290274872
-0.30164254 0.054148052 -0.061050031 4290079037
-0.30135202 0.055797346 -0.060632713 4290278479
-0.30136758 0.057580303 -0.060766418 4291400811
-0.34225872 -0.0076488429 -0.13353118 4292378452
-0.33961388 -0.0058770245 -0.12890103 4291914040
-0.3378886 -0.0040423875 -0.12592195 4290738763
-0.33661535 -0.0021790985 -0.12375432 4290155111
-0.33577976 -0.00027738171 -0.12237298 4289959282
-0.33411035 0.0014951631 -0.11949023 4289367148
-0.33287817 0.0033066999 -0.11739302 4287850319
-0.33125037 0.0050369818 -0.11458226 4287126328
-0.33045331 0.0068799397 -0.1132664 4287194945
-0.33006501 0.0087832119 -0.1126864 4286276170
-0.32927638 0.010608612 -0.11138465 4286010427
-0.3292926 0.012577766 -0.11153323 4286209344
-0.32890844 0.014469113 -0.11095998 4287587390
-0.32852569 0.016356502 -0.11038899 4286274618
-0.32656789 0.017895328 -0.10697543 4285353273
-0.32464409 0.019410187 -0.10362127 4285288762
-0.32199979 0.02072379 -0.098964259 4286211653
-0.31370607 0.020610329 -0.08410082 4286276946
-0.31337425 0.022373233 -0.083613455 4286672725
-0.3130435 0.024132963 -0.083127894 4286469952
-0.31168622 0.02561084 -0.08078628 4285548599
-0.31170133 0.027451409 -0.080925174 4285089844
-0.3117165 0.029294536 -0.081064254 4285351476
-0.31241581 0.031343836 -0.082441434 4287910963
-0.31277487 0.033303555 -0.083203621 4289615915
-0.31279013 0.035163607 -0.08334399 4289876516
-0.31280544 0.037026282 -0.083484538 4289677345
-0.31179255 0.038549278 -0.081762612 4290139434
-0.31112784 0.040175691 -0.080670677 4290466860
-0.31080475 0.041912403 -0.080197424 4290341179
-0.31014651 0.043525241 -0.079116255 4290076471
-0.30915958 0.04500762 -0.077438399 4290271278
-0.30851197 0.046602797 -0.076375216 4290273331
-0.30721411 0.047937572 -0.074131429 4290208827
-0.30433515 0.048626661 -0.069016166 4290077498
-0.30277723 0.049800441 -0.066296734 4290405942
-0.30216971 0.051341221 -0.065302044 4290537527
-0.30187473 0.053005304 -0.064874716 4290143037
-0.30158067 0.054666765 -0.064448878 4289947204
-0.30128759 0.056325641 -0.064024605 4290674518
-0.34162968 -0.0075784163 -0.13654062 4292375881
-0.33942094 -0.0057535917 -0.13265924 4291848503
-0.33725294 -0.0039596525 -0.12884969 4290670909
-0.33555025 -0.0021428729 -0.12588304 4290085714
-0.33471599 -0.00023766806 -0.12449239 4289827438
-0.33346829 0.0015970906 -0.12234965 4287922277
-0.33182055 0.0033526276 -0.11947863 4286731320
-0.33060411 0.0051505947 -0.11739015 4286337591
-0.3302117 0.0070679444 -0.11679937 4286929722
-0.32821009 0.0086973049 -0.11328047 4286013758
-0.32822526 0.010667334 -0.11343005 4285684799
-0.3270472 0.012408957 -0.1114075 4286011709
-0.32706237 0.014374026 -0.11155669 4287193154
-0.32707751 0.016341876 -0.1117061 4287388229
-0.32513136 0.017880943 -0.10828198 4285813057
-0.323219 0.019396095 -0.10491741 4285222457
-0.31837511 0.020183599 -0.096206151 4285157692
-0.31269544 0.020682402 -0.085965507 4285552966
-0.31133276 0.022185123 -0.08359424 4285685575
-0.31066516 0.023849677 -0.082490079 4286011970
-0.31000197 0.025505953 -0.081393361 4285878326
-0.30967906 0.027248703 -0.080917403 4285286708
-0.31036851 0.029282181 -0.082290351 4285024051
-0.31106246 0.031331595 -0.083672434 4286334250
-0.31141835 0.033291437 -0.084437497 4288762151
-0.31143269 0.035151619 -0.084578738 4289680169
-0.31144702 0.037014429 -0.084720187 4289679149
-0.31111977 0.038765397 -0.084236838 4290406716
-0.31011578 0.040280186 -0.082515128 4290602033
-0.30912164 0.041782819 -0.080810338 4290205229
-0.30880189 0.043514095 -0.080339395 4290142772
-0.30749077 0.044874404 -0.078052625 4290144059
-0.30684856 0.046467546 -0.076989993 4290078011
-0.3055625 0.047801215 -0.074746795 4290272821
-0.30365679 0.048867662 -0.071366467 4290470451
-0.30241087 0.050170492 -0.069194019 4290209076
-0.30211225 0.051846985 -0.068757884 4290076212
-0.30181462 0.053520817 -0.068323366 4290142522
-0.30151787 0.055191979 -0.067890346 4290342216
-0.30153179 0.056997653 -0.068027452 4291267938
-0.34099567 -0.0075074555 -0.13957302 4292439617
-0.33878353 -0.0056763222 -0.13564976 4291717944
-0.33661234 -0.0038763043 -0.13179937 4290669372
-0.33490711 -0.0020533074 -0.12880109 4290146887
-0.33449557 -8.4617619e-05 -0.12817428 4289562462
-0.33324119 0.0017594994 -0.1260006 4287529570
-0.3311713 0.0034610236 -0.12232882 4286534454
-0.32995296 0.0052650198 -0.12021839 4286533944
-0.32915273 0.0071206624 -0.11887478 4286796345
-0.32795608 0.0088944715 -0.11680204 4286535736
-0.32717013 0.01072624 -0.11548286 4286801213
-0.32442772 0.012165352 -0.11056662 4286143548
-0.32366654 0.013962287 -0.10929044 4286208837
-0.32214609 0.015586935 -0.10661708 4287002713
-0.32027155 0.017108828 -0.10329071 4287131217
-0.31842905 0.018607404 -0.1000213 4285942839
-0.31517974 0.019739505 -0.094160065 4285287480
-0.31202725 0.020840494 -0.0884737 4285287477
-0.3110061 0.02243522 -0.086710073 4285287732
-0.31033534 0.024107283 -0.085591115 4285221687
-0.30966899 0.025770986 -0.084479749 4285817669
-0.30968231 0.027617842 -0.084620818 4285681209
-0.31003493 0.029566513 -0.085387945 4285220913
-0.31073025 0.031627085 -0.086787902 4286924332
-0.31108636 0.033597231 -0.087562785 4288892713
-0.31075707 0.03535733 -0.087072887 4289613093
-0.31077051 0.037226405 -0.087215669 4289614120
-0.31010181 0.038868129 -0.086098537 4289811497
-0.30910024 0.040385019 -0.084365778 4290008618
-0.30777556 0.041771524 -0.082034789 4289747762
-0.30745703 0.043502923 -0.081562728 4289813558
-0.30648121 0.044985678 -0.079874814 4289945398
-0.30519032 0.046332765 -0.077603027 4290142258
-0.30455762 0.047916379 -0.076547995 4290272560
-0.30329123 0.049237225 -0.074319296 4289943857
-0.30235523 0.050672714 -0.072701037 4289879091
-0.30205387 0.05235913 -0.072257511 4290077240
-0.30206695 0.054176815 -0.072396375 4290143808
-0.30176657 0.055860233 -0.071954414 4290671693
-0.30177966 0.057680208 -0.07209345 4291860586
-0.34080753 -0.0073911203 -0.14346278 4292569661
-0.33858359 -0.0055506295 -0.1394818 4291652154
-0.33640113 -0.0037416036 -0.13557518 4290538299
-0.33598042 -0.0017468401 -0.13492839 4290145341
-0.3342725 7.0125068e-05 -0.13189712 4289886540
-0.33301139 0.0019236917 -0.12969194 4288904794
-0.33051705 0.0035702093 -0.12519991 4286796859
-0.32848179 0.0052491948 -0.12155631 4286009400
-0.32728341 0.0070368075 -0.11946251 4285878583
-0.32570109 0.008737253 -0.11665524 4285944120
-0.3245323 0.010489723 -0.11461371 4286405177
-0.32183549 0.011924304 -0.10973475 4286996030
-0.32070714 0.013635155 -0.10776512 4286076480
-0.31921664 0.015250965 -0.10512168 4286207561
-0.31774655 0.016847339 -0.10251461 4286212179
-0.31593388 0.018340643 -0.099269331 4286340163
-0.31379637 0.019725975 -0.095418274 4285418042
-0.31100839 0.020913307 -0.090355307 4285155637
-0.31033224 0.022598995 -0.089217626 4285221171
-0.30966055 0.024276145 -0.088087663 4285090102
-0.30933258 0.026038656 -0.087596752 4285156410
-0.30934495 0.02789473 -0.08773943 4285818180
-0.31003934 0.029954126 -0.089152463 4285353012
-0.31073835 0.032029793 -0.090575084 4287645998
-0.31075087 0.033906084 -0.090719298 4289680171
-0.30939469 0.035345301 -0.088312097 4290138666
-0.30906779 0.037102412 -0.087822847 4289942826
-0.30874199 0.038856409 -0.08733546 4289943084
-0.30774611 0.040373489 -0.08559753 4289681199
-0.30709174 0.041996986 -0.084495977 4289486133
-0.30677235 0.043733776 -0.084019318 4289945142
-0.30579576 0.045220356 -0.082314901 4290272561
-0.30450416 0.046570387 -0.080020986 4289944110
-0.30387071 0.048158448 -0.078955747 4289812014
-0.30292201 0.049610347 -0.077300556 4289747508
-0.30229864 0.051181324 -0.076252759 4289880635
-0.30231085 0.053010955 -0.076393388 4290209342
-0.30200675 0.054707099 -0.075942285 4290275652
-0.30138928 0.056262303 -0.074904352 4291002969
-0.34016383 -0.0073187728 -0.1465508 4292503867
-0.33882752 -0.0053749732 -0.14419147 4291324732
-0.33662531 -0.0035538641 -0.14021237 4290604092
-0.33576357 -0.0015995165 -0.13873707 4290341435
-0.33404669 0.00022662479 -0.13566162 4290210879
-0.33193302 0.0019678613 -0.13184202 4289558347
-0.32944486 0.0036170434 -0.12731932 4287128902
-0.32741457 0.0052987682 -0.12365098 4285943863
-0.32581896 0.007021212 -0.12079439 4285418805
-0.32464018 0.0087927142 -0.11871697 4285418551
-0.32192206 0.010255663 -0.11375394 4285746997
-0.32040381 0.011909543 -0.11103684 4287256891
-0.31853259 0.013466006 -0.10765639 4286928962
-0.31743005 0.015156966 -0.10571554 4286075453
-0.31560981 0.016669823 -0.10242707 4285551941
-0.31382036 0.018159708 -0.09919437 4286344023
-0.31136081 0.01945775 -0.094701804 4286081099
-0.30794054 0.020472836 -0.088402338 4285352761
-0.30727905 0.02214629 -0.087281279 4285090356
-0.30695561 0.023901135 -0.086794771 4285221427
-0.3066332 0.025652876 -0.086310081 4285221430
-0.30664459 0.027496954 -0.086452678 4285156668
-0.30698976 0.029442502 -0.087223284 4285351475
-0.30800912 0.031602461 -0.089263 4287909167
-0.30869818 0.03367947 -0.090682358 4289549612
-0.30870974 0.035552334 -0.090827182 4290008620
-0.30838192 0.037315037 -0.090333112 4290140458
-0.30771801 0.038959429 -0.089205623 4290141485
-0.30705848 0.040595684 -0.088085778 4289945137
-0.30640328 0.042223923 -0.086973451 4289945907
-0.30608299 0.043966155 -0.086492039 4290142772
-0.30510563 0.045456529 -0.084770955 4290008881
-0.30381337 0.046809517 -0.082454726 4289878323
-0.30350146 0.048529807 -0.081987433 4289813815
-0.30286923 0.050116889 -0.080915213 4289880380
-0.30224112 0.051696427 -0.079850093 4290012736
-0.30193421 0.053402994 -0.079391226 4290209858
-0.30162835 0.055106744 -0.078934096 4290604875
-0.33996859 -0.00720027 -0.15051837 4292176698
-0.33817619 -0.0052949754 -0.14727767 4290931259
-0.33641088 -0.0034155322 -0.14408611 4289948220
-0.33510721 -0.0015060921 -0.14176419 4289881660
-0.33338779 0.00032630388 -0.13865574 4290144059
-0.33127132 0.0020731958 -0.13479535 4289817152
-0.32878029 0.0037273872 -0.13022473 4288244295
-0.32594034 0.0052829445 -0.12499171 4286601021
-0.32435423 0.0070056464 -0.12212647 4285615670
-0.32318228 0.0087773483 -0.12004287 4285418550
-0.32009903 0.010168215 -0.11434155 4285615928
-0.31859514 0.011819937 -0.11162605 4287586111
-0.31748363 0.013528622 -0.10965186 4287519293
-0.3160159 0.015142665 -0.10700172 4286797891
-0.31420672 0.016655782 -0.10370319 4285878587
-0.3127836 0.018229311 -0.10113422 4286342468
-0.30929306 0.019275945 -0.094644248 4286146893
-0.30658537 0.020459708 -0.089634903 4285418808
-0.30626106 0.022220664 -0.089143604 4285090357
-0.3056052 0.023888336 -0.088023037 4285220659
-0.30561563 0.025733015 -0.088166535 4285155635
-0.30562603 0.027580274 -0.088310264 4285089844
-0.30630291 0.029628728 -0.089719951 4286137649
-0.30698425 0.031693332 -0.091139197 4288368942
-0.30733186 0.03366724 -0.091925152 4289353003
-0.30734244 0.035540264 -0.09207087 4289681195
-0.30701593 0.03730312 -0.091575645 4290010413
-0.30669045 0.039062817 -0.0910822 4290141999
-0.30603227 0.040701557 -0.08995524 4290274101
-0.30537835 0.042332232 -0.088835821 4290274615
-0.30538893 0.044200022 -0.088981114 4290208308
-0.3047393 0.045819227 -0.087868966 4290076214
-0.30344218 0.047176596 -0.085522309 4290010938
-0.30312839 0.048904762 -0.085048698 4289946174
-0.30249339 0.050498433 -0.083962314 4289880896
-0.30186251 0.052084483 -0.082883134 4290012992
-0.30155379 0.053798761 -0.082418092 4290210371
-0.30156422 0.05564893 -0.082562037 4290935122
-0.33977091 -0.0070804004 -0.15453199 4291782714
-0.33796868 -0.0051649362 -0.151243 4290669117
-0.33619377 -0.0032756554 -0.14800417 4289620803
-0.33488292 -0.0013560172 -0.14564791 4289752645
-0.33315441 0.00048567218 -0.14249387 4289881915
-0.3301833 0.0021178855 -0.13696718 4289947194
-0.32769862 0.0037747589 -0.13236538 4289030212
-0.32446587 0.0052671204 -0.12633266 4287914316
-0.3228893 0.00699005 -0.12345877 4286534976
-0.32133514 0.0086912615 -0.1206259 4286205756
-0.31828219 0.010081043 -0.11492737 4286402876
-0.31642085 0.011656369 -0.11150297 4286666552
-0.31495696 0.013283568 -0.10883626 4287321655
-0.31351307 0.014891165 -0.10620626 4287323199
-0.31208882 0.016479518 -0.10361223 4286470209
-0.31033319 0.017966261 -0.10038229 4286009659
-0.30689967 0.019012183 -0.093937948 4286010685
-0.30523002 0.020446578 -0.090867653 4285352501
-0.30490696 0.022207685 -0.090375222 4285156405
-0.30458501 0.023965586 -0.089884654 4285220916
-0.30426407 0.025720347 -0.089395866 4285155630
-0.30460399 0.02766384 -0.090174109 4285024814
-0.30527762 0.029716073 -0.091593146 4287121452
-0.30495456 0.031474963 -0.091100529 4288959020
-0.30529675 0.033442162 -0.091884777 4289548841
-0.30530632 0.035309162 -0.092030905 4289614378
-0.30498326 0.037066735 -0.091538191 4289680172
-0.30499285 0.038935944 -0.091684483 4289944878
-0.30467087 0.040689964 -0.091193631 4290471479
-0.3043499 0.042440902 -0.09070453 4290471481
-0.30435953 0.044311881 -0.090850972 4290273847
-0.30403963 0.046059314 -0.090363629 4290273849
-0.30306715 0.047547232 -0.088620037 4290208060
-0.30275148 0.049283344 -0.088139951 4290011455
-0.30243686 0.051016483 -0.087661594 4289946431
-0.30180112 0.052611239 -0.086564384 4290078271
-0.30148953 0.054335888 -0.086091295 4290473286
-0.3014991 0.056198124 -0.086237036 4291331933
-0.34003058 -0.0069123534 -0.15947714 4291454266
-0.33821133 -0.0049832622 -0.15612565 4290603324
-0.33776826 -0.0029194015 -0.15542075 4289948483
-0.33465579 -0.0012042602 -0.14957608 4290014018
-0.33248547 0.00058726117 -0.14554223 4289947450
-0.32951093 0.0022243641 -0.13995638 4290012986
-0.32661268 0.0038223106 -0.134514 4289684798
-0.32338876 0.005316786 -0.12844034 4288834124
-0.32142416 0.0069744829 -0.12479126 4288180055
-0.31987938 0.0086759515 -0.12194986 4288178515
-0.31835642 0.010356125 -0.11914877 4287981642
-0.3153652 0.0117159 -0.11351155 4286205239
-0.31427038 0.013422455 -0.11153281 4286601271
-0.31282526 0.015034765 -0.10887613 4287192124
-0.31139991 0.016627695 -0.106256 4287061823
-0.30964315 0.018118355 -0.10299361 4286208578
-0.30620876 0.019165339 -0.096485302 4285680442
-0.30420586 0.020518266 -0.092741594 4285352245
-0.30388299 0.022282258 -0.09224616 4285155636
-0.30323195 0.02395276 -0.091115318 4285090100
-0.30291232 0.025707686 -0.090625361 4285024817
-0.30292085 0.027555211 -0.090770841 4285155633
-0.30325761 0.029504415 -0.091552414 4287712045
-0.3032662 0.031360183 -0.091698542 4289287213
-0.30360407 0.033324111 -0.09248329 4289680170
-0.30361268 0.03518815 -0.092630059 4289613866
-0.30362132 0.037054855 -0.092777029 4289613611
-0.30330062 0.038809467 -0.092285059 4289945136
-0.30330923 0.040678374 -0.092432216 4290602551
-0.30298954 0.042429466 -0.091941968 4290602552
-0.30332655 0.044424105 -0.092727132 4290405433
-0.30300686 0.046174347 -0.092236824 4290405178
-0.30236202 0.047792703 -0.091114216 4290339132
-0.3023707 0.049665656 -0.091261685 4290076734
-0.30237937 0.051541295 -0.091409355 4290011966
-0.30173868 0.053144872 -0.090293661 4290209601
-0.30142424 0.054879967 -0.089812383 4290802508
-0.30143291 0.056754421 -0.089959964 4291859302
-0.33983004 -0.0067891553 -0.1635986 4290800186
-0.33845758 -0.004798769 -0.16108441 4290472251
-0.33800945 -0.002719142 -0.16036543 4290210364
-0.33486888 -0.00099340675 -0.15441087 4289751100
-0.33224431 0.00074961805 -0.14945614 4289291578
-0.32925522 0.0023939076 -0.14378889 4289684028
-0.32593215 0.0039341878 -0.13746794 4289421627
-0.32191119 0.0053009326 -0.12978411 4289225792
-0.32034808 0.0070270016 -0.12688223 4289034323
-0.31842339 0.0086606052 -0.12327404 4289298272
-0.3169097 0.010341035 -0.12046454 4289166939
-0.31467482 0.011850383 -0.11624724 4286470467
-0.31357881 0.013562305 -0.11424828 4286403894
-0.31213251 0.015179324 -0.11156469 4287060539
-0.31070605 0.01677689 -0.10891801 4287127100
-0.30929896 0.018355366 -0.10630754 4286800963
-0.30551299 0.019319544 -0.099049807 4286077762
-0.30317807 0.020590182 -0.094621882 4285352760
-0.30285543 0.022357106 -0.094123445 4285155380
-0.30187875 0.023939939 -0.092346139 4285089844
-0.30123544 0.025602268 -0.091219679 4285024563
-0.30124301 0.027446926 -0.091365784 4285679667
-0.30157551 0.029392907 -0.092147954 4288237359
-0.30190915 0.031347897 -0.09293288 4289483564
-0.30224383 0.033311937 -0.093720548 4289680170
-0.30225149 0.035176139 -0.093868189 4289614378
-0.30225918 0.037042949 -0.094016045 4289745195
-0.30259505 0.039027501 -0.094807468 4290273843
-0.30293205 0.041021209 -0.095601708 4290668600
-0.30293977 0.042902149 -0.095750697 4290602041
-0.30360943 0.045036454 -0.09719865 4290470457
-0.30328566 0.04680026 -0.09669783 4290404665
-0.30263364 0.04843 -0.095552184 4290273596
-0.30264139 0.050318517 -0.095701769 4290077246
-0.30297855 0.052346855 -0.09649875 4290078015
-0.30167523 0.053685464 -0.094072014 4290341188
-0.30168298 0.055572715 -0.094221495 4291133527
