# .PCD v0.7 - Point Cloud Data file format
VERSION 0.7
FIELDS x y z rgba
SIZE 4 4 4 4
TYPE F F F U
COUNT 1 1 1 1
WIDTH 999
HEIGHT 1
VIEWPOINT 0 0 0 1 0 0 0
POINTS 999
DATA ascii
-0.44815212 0.038336731 -0.12433935 4291999879
-0.44749492 0.040556561 -0.1235816 4291803014
-0.44756657 0.042926069 -0.1237129 4291802504
-0.44763833 0.045298938 -0.12384439 4291670662
-0.44771019 0.047675088 -0.12397604 4291737736
-0.44778213 0.050054595 -0.1241079 4291933315
-0.44785422 0.052437454 -0.12423992 4291736452
-0.44792634 0.054823637 -0.12437216 4291866242
-0.4472717 0.057027396 -0.1236172 4291737222
-0.43903041 0.027627081 -0.11664046 4292328075
-0.43909904 0.029936442 -0.11676951 4292261768
-0.43847269 0.03211825 -0.1160436 4292130441
-0.43854138 0.034429248 -0.11617274 4292065163
-0.43861017 0.036743533 -0.11630205 4292131722
-0.43798637 0.038916439 -0.11557912 4291868556
-0.43805525 0.041232415 -0.11570852 4292196234
-0.43812418 0.043551594 -0.1158381 4292064649
-0.4381932 0.045874052 -0.11596789 4292065419
-0.43826237 0.048199758 -0.11609783 4292000147
-0.4383316 0.050528746 -0.11622797 4291999369
-0.43771023 0.052688312 -0.11550777 4291868296
-0.43709153 0.054842327 -0.11479075 4291670662
-0.43923378 0.057718344 -0.11747403 4291867269
-0.43520761 0.024956027 -0.11548587 4292393100
-0.43459171 0.027128354 -0.1147678 4292328327
-0.43465865 0.029418921 -0.11489684 4292131207
-0.43472567 0.031712651 -0.11502607 4292065929
-0.43479279 0.034009613 -0.11515548 4292000908
-0.43486002 0.036309775 -0.11528506 4291869577
-0.43492731 0.038613167 -0.11541484 4291540104
-0.4349947 0.040919796 -0.11554481 4291932550
-0.43506223 0.043229617 -0.11567494 4291867269
-0.43512982 0.04554271 -0.11580525 4291802770
-0.43519747 0.047859032 -0.11593577 4292797359
-0.43526527 0.050178625 -0.11606645 4292589193
-0.43397275 0.052159715 -0.11450741 4291933836
-0.43269086 0.054127946 -0.11296128 4292196491
-0.39209265 0.045658357 -0.06256444 4291933578
-0.40567687 0.051366284 -0.079485364 4292063111
-0.43009496 0.022103125 -0.11266827 4292458890
-0.43015999 0.024368854 -0.11279698 4292261770
-0.43022513 0.026637757 -0.11292585 4292392842
-0.43029037 0.028909829 -0.11305492 4292262025
-0.4303557 0.031185038 -0.11318416 4292131724
-0.43042108 0.033463452 -0.11331359 4291802759
-0.43048662 0.035745043 -0.1134432 4291736198
-0.43055218 0.038029838 -0.11357299 4291803531
-0.43061787 0.040317804 -0.11370296 4291606924
-0.43068364 0.042609017 -0.11383312 4291606411
-0.43074954 0.04490339 -0.11396345 4291737484
-0.43081552 0.047201041 -0.11409396 4292128909
-0.43021455 0.049338143 -0.11338885 4291670148
-0.42895442 0.051302783 -0.11185757 4291998344
-0.42770448 0.053254761 -0.11033874 4292195977
-0.41946825 0.053330425 -0.10006226 4292064648
-0.420156 0.055732917 -0.10097089 4292129928
-0.39280999 0.050286975 -0.066731423 4292194439
-0.42573872 0.019412326 -0.11072776 4292589704
-0.42580199 0.021656768 -0.11085631 4292261253
-0.42586538 0.02390435 -0.11098505 4292327046
-0.42592886 0.026155077 -0.11111393 4292262281
-0.4259924 0.028408919 -0.11124302 4292327817
-0.42605606 0.030665945 -0.11137226 4292262025
-0.42611977 0.032926079 -0.11150172 4291670152
-0.42618361 0.035189394 -0.11163134 4291737485
-0.42624754 0.037455894 -0.11176114 4291539849
-0.42631152 0.039725568 -0.11189112 4291604871
-0.42637563 0.041998398 -0.11202127 4291539849
-0.42643982 0.044274431 -0.11215162 4291540363
-0.42650408 0.046553653 -0.11228216 4291538315
-0.42656845 0.048836082 -0.11241288 4291736456
-0.42532942 0.050791055 -0.11089583 4291670664
-0.42345765 0.052565936 -0.10857833 4291998598
-0.41600278 0.052822128 -0.099199899 4292326791
-0.41667855 0.055209681 -0.10010252 4292131464
-0.37890714 0.046775095 -0.052373063 4292195975
-0.37428829 0.047386121 -0.046572205 4292328073
-0.42024329 0.018791188 -0.10732461 4292457862
-0.42030472 0.021008909 -0.10745265 4292262021
-0.42036623 0.023229731 -0.10758085 4292458375
-0.42042777 0.02545364 -0.10770927 4292262023
-0.42048946 0.027680686 -0.10783783 4292000136
-0.42055118 0.029910812 -0.10796659 4291737736
-0.42061302 0.032144077 -0.10809553 4291604616
-0.42067495 0.034380447 -0.10822464 4291670923
-0.42073694 0.036619965 -0.10835395 4291277195
-0.42079908 0.03886259 -0.10848342 4291343755
-0.42086124 0.041108392 -0.10861309 4291540106
-0.42155996 0.043506119 -0.10955445 4291474056
-0.42162246 0.04576274 -0.10968472 4291277706
-0.42104831 0.047864679 -0.10900315 4291605386
-0.4198449 0.049800321 -0.10751881 4291606156
-0.41072226 0.049646445 -0.095931724 4292194691
-0.38818777 0.045757446 -0.0672305 4292326277
-0.3988387 0.050715558 -0.080866598 4292196998
-0.39244679 0.050999869 -0.072756805 4292130439
-0.37659812 0.048450693 -0.052575219 4291998861
-0.41792688 0.01646474 -0.10786746 4292328333
-0.41673589 0.018477807 -0.10638905 4292129414
-0.41679579 0.020682489 -0.10651737 4292129925
-0.41685578 0.022890266 -0.10664587 4292261768
-0.41691589 0.025101092 -0.10677452 4292195464
-0.41697603 0.027315011 -0.10690339 4292130950
-0.41703629 0.029532054 -0.10703242 4291803784
-0.41709664 0.031752162 -0.10716162 4291539593
-0.41715708 0.033975381 -0.10729101 4291540365
-0.41721758 0.036201727 -0.10742058 4291212170
-0.41727817 0.038431168 -0.10755035 4291147657
-0.41733885 0.04066376 -0.10768028 4291474061
-0.41865331 0.043194108 -0.10942312 4291473547
-0.4187144 0.04544187 -0.10955395 4291211401
-0.41814724 0.047536246 -0.10887647 4291474321
-0.41633788 0.04930659 -0.10660037 4294755230
-0.35110986 0.034354415 -0.022702659 4293837967
-0.35076997 0.036025252 -0.022306385 4292392582
-0.36174595 0.040833395 -0.036477581 4292261509
-0.37373349 0.046087392 -0.051954795 4292261259
-0.37058654 0.047098465 -0.047947645 4292916629
-0.41382495 0.016072333 -0.10613151 4292195462
-0.4132697 0.018168144 -0.1054648 4292064133
-0.41332814 0.020359939 -0.10559338 4292261509
-0.41338667 0.022554781 -0.10572214 4292195973
-0.41344529 0.024752717 -0.10585108 4292196741
-0.41350397 0.026953701 -0.1059802 4291868810
-0.41356277 0.02915775 -0.10610949 4291540365
-0.4136216 0.031364907 -0.10623899 4291408781
-0.41368052 0.033575144 -0.10636865 4291278222
-0.41373956 0.035788443 -0.10649849 4291081356
-0.41379866 0.038004883 -0.10662852 4291146633
-0.41385785 0.040224396 -0.10675873 4291343498
-0.34323311 0.025753081 -0.015156038 4291145866
-0.343279 0.027473319 -0.015256945 4291605641
-0.3433249 0.029195951 -0.015358015 4291737753
-0.34337091 0.030920984 -0.015459212 4294833081
-0.34415305 0.032843266 -0.016516328 4294365095
-0.34871301 0.035805214 -0.022479814 4292655759
-0.35069147 0.038114 -0.025092058 4292457858
-0.35590622 0.041378714 -0.031908907 4292327048
-0.36477411 0.045791071 -0.043473724 4292788874
-0.40912944 0.013425848 -0.10350917 4292327822
-0.40918618 0.015594617 -0.1036374 4291932802
-0.40864432 0.017671024 -0.10298314 4291933318
-0.40870109 0.019841578 -0.10311148 4291999622
-0.40875793 0.022015173 -0.10324001 4291932802
-0.40881488 0.024191778 -0.1033687 4291736198
-0.40887186 0.026371419 -0.10349759 4291736968
-0.40892896 0.028554108 -0.10362666 4291934349
-0.40898612 0.030739876 -0.10375591 4291605900
-0.4090434 0.032928679 -0.10388532 4291081356
-0.40910071 0.035120558 -0.10401493 4291277453
-0.40915814 0.03731548 -0.10414471 4291212940
-0.40921563 0.03951351 -0.10427468 4291212681
-0.34161633 0.02565518 -0.01581852 4291343501
-0.34166124 0.027372895 -0.015920093 4291802254
-0.34207058 0.029184721 -0.016498955 4291935890
-0.3421157 0.030909901 -0.016600976 4293114531
-0.34289309 0.03283228 -0.017662395 4294630308
-0.34704804 0.03569017 -0.023149507 4293179541
-0.34862399 0.037886523 -0.025258591 4292061820
-0.35337782 0.041021053 -0.031533226 4291865983
-0.36041233 0.044898029 -0.0407991 4292129413
-0.36388639 0.047803193 -0.04539999 4292130444
-0.40516815 0.013063745 -0.10183682 4292129154
-0.40463707 0.015126125 -0.10119189 4291801729
-0.40469223 0.017277021 -0.10132008 4291801988
-0.40474749 0.019430907 -0.10144843 4291801478
-0.40480277 0.021587783 -0.10157699 4291735175
-0.40485817 0.023747699 -0.10170571 4291736459
-0.40491363 0.025910612 -0.10183461 4291868298
-0.40496919 0.028076539 -0.10196367 4291999883
-0.40444008 0.030126926 -0.10132103 4291802766
-0.40449566 0.032294717 -0.10145021 4291671436
-0.40455133 0.034465559 -0.1015796 4291540623
-0.4022893 0.036119714 -0.098648183 4291671179
-0.40642524 0.039224125 -0.10416663 4291539848
-0.34145558 0.025903782 -0.018396383 4291605384
-0.34186551 0.027719373 -0.018982343 4291999627
-0.34117955 0.029265435 -0.018120421 4292394128
-0.34122384 0.030993372 -0.018223407 4292922529
-0.34199885 0.032919072 -0.019292228 4294892985
-0.34314802 0.034960471 -0.020856027 4293772438
-0.34505698 0.037234347 -0.023424895 4292455030
-0.35569185 0.042059422 -0.037533034 4291995511
-0.35905749 0.044886783 -0.042031519 4291733886
-0.36037263 0.047142513 -0.043819107 4291932292
-0.39893109 0.010256167 -0.097025663 4292064650
-0.39898428 0.012372541 -0.09715277 4291867010
-0.39903757 0.014491831 -0.097280055 4291998081
-0.3985253 0.016523138 -0.096654885 4291735940
-0.39857861 0.018644294 -0.096782282 4291735432
-0.39863199 0.020768387 -0.096909866 4291801227
-0.39868546 0.022895463 -0.097037606 4291736971
-0.39873898 0.025025504 -0.097165555 4291541133
-0.39822862 0.027047643 -0.096542619 4291606671
-0.39716056 0.028950986 -0.095176741 4291671694
-0.39777386 0.031195911 -0.09605027 4291803277
-0.39782748 0.033329766 -0.096178427 4291671952
-0.39510188 0.03484026 -0.092603475 4291474572
-0.39793497 0.037606414 -0.096435286 4291212174
-0.34202838 0.026330976 -0.021978114 4291804817
-0.3413367 0.027888503 -0.021102307 4291935122
-0.3406494 0.029438909 -0.020232039 4292395160
-0.34032908 0.031077128 -0.019850953 4294763178
-0.34110165 0.033006165 -0.020927269 4294964670
-0.34187904 0.034949537 -0.022010319 4293637512
-0.34340414 0.037117772 -0.024091218 4292388213
-0.34800482 0.0402034 -0.030276163 4292125552
-0.35078895 0.042816907 -0.034038913 4291666547
-0.35526538 0.045989063 -0.040061351 4291865467
-0.39403242 0.0097712837 -0.093956389 4291669378
-0.39408395 0.011863807 -0.094083034 4291735938
-0.39413553 0.013959216 -0.094209872 4291539330
-0.39418718 0.016057532 -0.094336875 4291408006
-0.39423892 0.018158795 -0.094464049 4291605642
-0.39429075 0.020262972 -0.094591409 4291605128
-0.39434263 0.022370093 -0.094718941 4291605386
-0.39439458 0.024480158 -0.094846651 4291476110
-0.39389619 0.026484402 -0.09423501 4291410062
-0.39285332 0.028372156 -0.092891604 4291606669
-0.39290521 0.030479105 -0.093019128 4291341958
-0.39241263 0.032469641 -0.092414893 4291340931
-0.38817993 0.033608079 -0.086782463 4291341444
-0.34789672 0.026260367 -0.032676142 4291210375
-0.34223789 0.026675148 -0.025115432 4291408777
-0.34154046 0.028241375 -0.024225375 4291540618
-0.34011579 0.029613426 -0.022356823 4291868815
-0.33943138 0.031161111 -0.021483688 4292984218
-0.33983725 0.032995116 -0.02207738 4293309843
-0.34024441 0.034837212 -0.022673002 4292321400
-0.34138727 0.036896504 -0.024259079 4292057964
-0.34366149 0.039304674 -0.027368659 4291927917
-0.34597868 0.041760817 -0.03053706 4291928943
-0.35070181 0.044990495 -0.036946237 4291995254
-0.35114506 0.04694752 -0.037593313 4291797604
-0.38706756 0.0069468813 -0.087952107 4291933312
-0.387117 0.0089978492 -0.088077195 4291801472
-0.38716653 0.011051664 -0.088202469 4291735428
-0.38721612 0.013108379 -0.0883279 4291802246
-0.38726577 0.015167921 -0.088453524 4291604871
-0.38731551 0.017230317 -0.088579297 4291538569
-0.38736531 0.019295637 -0.088705271 4291671180
-0.38741514 0.021363782 -0.088831425 4291605898
-0.38693783 0.02333395 -0.088243045 4291475081
-0.38593873 0.025195749 -0.086947337 4291541129
-0.38494712 0.027046744 -0.085661359 4291275911
-0.38344866 0.028777458 -0.083687745 4291078528
-0.37895313 0.029827995 -0.077648945 4290947458
-0.36620656 0.028936746 -0.060416549 4290946945
-0.36050487 0.029517047 -0.052736122 4290946945
-0.34357715 0.027296705 -0.029821645 4291210114
-0.34174654 0.028598638 -0.027387479 4291210373
-0.33957872 0.029789025 -0.024494926 4291669639
-0.33889294 0.031341039 -0.023613306 4291933325
-0.33893493 0.033082444 -0.023719527 4291866761
-0.33934048 0.034927648 -0.024319453 4291732091
-0.34011307 0.036885656 -0.025418131 4291336303
-0.34200177 0.039184466 -0.028033124 4291664235
-0.34467861 0.041750025 -0.031719662 4292323949
-0.34780475 0.044495359 -0.036017869 4292580176
-0.3482396 0.046439264 -0.036660124 4292379715
-0.34986031 0.048774496 -0.038914394 4291860823
-0.38291022 0.004552111 -0.085649908 4292063878
-0.38295811 0.00658157 -0.085774638 4291602816
-0.3830061 0.0086138323 -0.085899517 4291603330
-0.38305411 0.010648921 -0.086024597 4291669641
-0.38310221 0.012686851 -0.086149849 4291801989
-0.38315034 0.014727613 -0.086275265 4291669894
-0.38319859 0.016771238 -0.086400859 4291604873
-0.38324687 0.018817689 -0.086526632 4291605129
-0.38329524 0.020867011 -0.086652569 4291801737
-0.38180459 0.022623166 -0.084673963 4291671943
-0.38134342 0.024565265 -0.084102862 4291275906
-0.38037831 0.026398515 -0.082842201 4290946434
-0.3754673 0.027374547 -0.076182634 4290880895
-0.3674773 0.027598806 -0.065307751 4290749822
-0.36081368 0.028011767 -0.056244813 4290815104
-0.3569929 0.029000483 -0.051070344 4290946943
-0.34342003 0.027560506 -0.032543521 4291077248
-0.34120855 0.028773131 -0.029567258 4291275904
-0.3390381 0.029965699 -0.026646383 4291603842
-0.33798853 0.031425841 -0.025259746 4291603846
-0.33766818 0.033071376 -0.024871765 4291800197
-0.33807087 0.034916684 -0.025474293 4291601788
-0.33883867 0.036874793 -0.026577352 4291140467
-0.34071657 0.039173663 -0.029202204 4291731056
-0.34187424 0.041284297 -0.030840678 4292313701
-0.34456149 0.043887906 -0.034576718 4292446009
-0.3453708 0.045937423 -0.035739001 4292642355
-0.34696192 0.048254684 -0.037973832 4292577087
-0.3473953 0.05021299 -0.038621493 4291992152
-0.3753542 0.0017848166 -0.078599259 4292261766
-0.37540001 0.0037678524 -0.078722045 4291406206
-0.37544584 0.0057536284 -0.078845009 4291602561
-0.37549174 0.0077421782 -0.078968152 4291603587
-0.37553772 0.0097334944 -0.07909146 4291604354
-0.37558377 0.011727584 -0.079214938 4291670659
-0.37562987 0.013724447 -0.07933858 4291604873
-0.37567604 0.015724078 -0.079462416 4291474058
-0.37572229 0.017726518 -0.079586402 4291670923
-0.37576857 0.019731747 -0.07971058 4291342211
-0.37532461 0.02164501 -0.079158396 4291208060
-0.37439549 0.02345649 -0.0779365 4291273851
-0.37347302 0.025257895 -0.076723471 4291077246
-0.36692572 0.025836725 -0.067745246 4291011452
-0.36379248 0.027081572 -0.063477933 4290945148
-0.35600349 0.027211428 -0.052780148 4290946176
-0.3518939 0.028101986 -0.047160659 4291142525
-0.34402487 0.028013714 -0.036346264 4291078275
-0.34103993 0.029042756 -0.032276176 4291471748
-0.33812898 0.030048767 -0.028307073 4291669892
-0.33708107 0.031510882 -0.026911447 4291603076
-0.33676079 0.033158969 -0.026521146 4291538310
-0.33680111 0.034905724 -0.026629306 4291668354
-0.33720225 0.036759302 -0.027236432 4291210876
-0.33833188 0.038836766 -0.028851248 4290606176
-0.33984086 0.041048255 -0.030991316 4290932280
-0.34099537 0.043173641 -0.032641735 4291916595
-0.34329566 0.045683578 -0.035877995 4292314164
-0.34410009 0.047741465 -0.037045415 4292577336
-0.34452525 0.049686674 -0.037688315 4292512322
-0.34495184 0.051640637 -0.038333427 4292057942
-0.37292016 0.0016511703 -0.07857801 4291143552
-0.37296477 0.0036272397 -0.078701295 4291276157
-0.3725259 0.0055404697 -0.078152463 4291537280
-0.37257057 0.0075184875 -0.078275867 4291538558
-0.37261528 0.0094992341 -0.078399442 4291735938
-0.37266007 0.01148277 -0.078523181 4291670919
-0.37270492 0.013469065 -0.078647114 4291539846
-0.37274984 0.01545811 -0.078771211 4291671178
-0.37279478 0.017449945 -0.078895472 4291669638
-0.37283984 0.019444568 -0.079019912 4291076218
-0.37240246 0.021348236 -0.078472853 4290943862
-0.37148768 0.023151247 -0.077260844 4291274362
-0.36363998 0.023493625 -0.066393316 4291142525
-0.36100712 0.024850816 -0.062785946 4290879612
-0.35842779 0.02618314 -0.05925202 4291010938
-0.35131973 0.026432162 -0.049406897 4290945147
-0.34694302 0.027229622 -0.043364845 4291011711
-0.3423388 0.027908172 -0.037003782 4291209861
-0.33974969 0.029031072 -0.033449758 4291669641
-0.33758098 0.030227074 -0.030480742 4292129161
-0.33617064 0.03159618 -0.028568361 4292393097
-0.33549169 0.033147879 -0.027675519 4291999370
-0.33588988 0.034996402 -0.02828492 4291341446
-0.33628932 0.036853071 -0.028896332 4290875762
-0.33669007 0.038718008 -0.029509811 4290335542
-0.33781996 0.040813662 -0.031141225 4290470446
-0.33932963 0.043047074 -0.033303324 4290798900
-0.34123337 0.045431346 -0.036016338 4292178225
-0.34202781 0.047482081 -0.037181314 4292313653
-0.34244746 0.049420837 -0.037823271 4292511549
-0.34324965 0.051499154 -0.038999863 4292513349
-0.34444192 0.053728297 -0.040721849 4292058715
-0.36397189 0.00072408933 -0.069397591 4291604612
-0.36355987 0.0025866176 -0.068880931 4291472259
-0.36314932 0.0044453242 -0.06836623 4291603330
-0.36409926 0.006495452 -0.06976033 4291800449
-0.36414182 0.0084246108 -0.069881596 4291932801
-0.36418444 0.010356454 -0.070003025 4291473028
-0.36377233 0.01221557 -0.069486164 4291737222
-0.36336169 0.014070937 -0.068971239 4291472003
-0.36340433 0.016004127 -0.069092758 4291536766
-0.36299521 0.017855117 -0.0685798 4291142269
-0.36303791 0.019790329 -0.068701454 4291008627
-0.36218131 0.021545947 -0.067559652 4290943861
-0.35107166 0.021136397 -0.052009713 4290879353
-0.35111254 0.022989824 -0.052126206 4290813306
-0.3483119 0.024206502 -0.048248429 4290945147
-0.34715423 0.025765331 -0.046679311 4291404410
-0.34251565 0.026473861 -0.040214919 4291865983
-0.34028199 0.027709987 -0.037130702 4291604357
-0.33845925 0.029019395 -0.03462353 4291275659
-0.33666492 0.03031092 -0.03215548 4291271556
-0.33561718 0.03177885 -0.03073716 4291797631
-0.33457914 0.033235695 -0.029332098 4292064905
-0.33461776 0.034985423 -0.029442074 4291732092
-0.33501431 0.036842231 -0.030056106 4290873455
-0.33577245 0.038815234 -0.031179426 4290072368
-0.33689889 0.040914755 -0.032821983 4289941034
-0.338036 0.043036476 -0.034480091 4290795054
-0.3403028 0.045541413 -0.037730351 4291060523
-0.34109461 0.04759587 -0.038903438 4292182330
-0.3415125 0.049538039 -0.039549999 4292771383
-0.34231207 0.051620133 -0.040734805 4292840769
-0.34311679 0.053718153 -0.041927326 4292514895
-0.35814664 0.002053116 -0.064509839 4291932292
-0.35731551 0.0038246654 -0.063395411 4291867266
-0.35605919 0.005524552 -0.061678771 4291866498
-0.35567027 0.007339512 -0.061189685 4291604353
-0.35485607 0.0090830559 -0.060098272 4291670917
-0.35618094 0.011172875 -0.062036417 4291472257
-0.35536373 0.012911602 -0.060940586 4291208059
-0.35328451 0.014411217 -0.058056194 4291208056
-0.35416862 0.016441654 -0.059370462 4291208315
-0.35294536 0.018073518 -0.057698175 4291009912
-0.34886271 0.019106507 -0.051971681 4291139957
-0.34181234 0.019453693 -0.042035244 4291929460
-0.34108821 0.021081109 -0.041067075 4291339644
-0.34112683 0.022872142 -0.041180477 4290815622
-0.34040731 0.024488503 -0.040218458 4290943863
-0.3385711 0.025826717 -0.037671641 4291074161
-0.33749849 0.027329175 -0.036207642 4291072878
-0.33680171 0.028913725 -0.035276666 4291267182
-0.33538345 0.030299453 -0.03332112 4291400816
-0.33434072 0.031767573 -0.031898223 4292324480
-0.33366355 0.033323776 -0.030993944 4291868297
-0.33370131 0.035076331 -0.031104924 4291469688
-0.33409622 0.036936279 -0.03172332 4290479982
-0.33485171 0.038912781 -0.032854352 4289875755
-0.33597475 0.041016154 -0.034508135 4289677858
-0.33710837 0.043141793 -0.036177587 4290074151
-0.33936903 0.045651823 -0.039449923 4290600493
-0.34015825 0.04771002 -0.04063122 4291326770
-0.34057435 0.049655568 -0.041282382 4292182334
-0.34099185 0.051609896 -0.041935787 4293168718
-0.34179145 0.053707987 -0.043132998 4293772126
-0.35498542 -6.2760453e-05 -0.063189819 4291207542
-0.35416961 0.0017015048 -0.062088154 4291270506
-0.35378349 0.0035147821 -0.061599776 4291408252
-0.35255465 0.0052020885 -0.059907518 4291408517
-0.35301524 0.0071308231 -0.060628496 4291604610
-0.35347748 0.0090686735 -0.061352067 4291273339
-0.35309401 0.010873834 -0.060867243 4291074677
-0.35229176 0.012602027 -0.059783611 4290878839
-0.35149488 0.014321211 -0.058707375 4291207032
-0.35070345 0.016031556 -0.057638545 4291932541
-0.33891314 0.015561441 -0.040838219 4291800962
-0.3378292 0.017109724 -0.039347515 4291208060
-0.33712474 0.018724216 -0.038399227 4291465321
-0.33642468 0.020331029 -0.037457015 4291333477
-0.33719921 0.022264482 -0.038625047 4291071589
-0.33723655 0.024038352 -0.038738199 4291006308
-0.33580333 0.025458174 -0.036745943 4291005542
-0.33438805 0.026862755 -0.034778662 4291202149
-0.33478653 0.028715001 -0.035408627 4291269744
-0.33410174 0.030287988 -0.034486949 4292060285
-0.33306411 0.031756286 -0.033059459 4292393610
-0.33274493 0.033412136 -0.032661144 4291799169
-0.33278188 0.035167549 -0.032773115 4291600504
-0.33317506 0.037030648 -0.03339589 4289885023
-0.33428755 0.039119575 -0.03505028 4289547049
-0.33541054 0.041230615 -0.036720373 4289677087
-0.33654416 0.043364093 -0.038406346 4289613091
-0.33880568 0.045884326 -0.04171107 4289944874
-0.33884388 0.047699533 -0.041826855 4290601520
-0.33963305 0.049773518 -0.043020464 4292901962
-0.34004879 0.05173127 -0.043678567 4292386923
-0.3404659 0.053697851 -0.044338848 4292780114
-0.35144857 -0.0021964312 -0.061281111 4291588955
-0.35065049 -0.00044229988 -0.060195819 4291191863
-0.35027248 0.0013569449 -0.059715424 4290930491
-0.34948248 0.0030955484 -0.058641128 4290481242
-0.3491084 0.0048849895 -0.058166061 4291342465
-0.3487356 0.0066710366 -0.05769274 4291144066
-0.3483642 0.00845371 -0.057221197 4291401330
-0.34758723 0.010164573 -0.056164715 4291928434
-0.34641269 0.011795854 -0.054534372 4291537531
-0.34056315 0.012554375 -0.046158865 4291010172
-0.33907759 0.014059816 -0.044077419 4291336820
-0.33429742 0.014891187 -0.037240412 4291206262
-0.33324939 0.016420996 -0.035788268 4291141754
-0.33292612 0.018091582 -0.035382036 4291666294
-0.33224696 0.019680506 -0.034461752 4291863155
-0.33263978 0.021506129 -0.035089441 4291796338
-0.33339319 0.023424733 -0.036238275 4291796595
-0.33271167 0.025006888 -0.03531437 4291993201
-0.33203438 0.026581712 -0.034396335 4292060793
-0.33242649 0.028425014 -0.035023596 4291997829
-0.33246255 0.030181266 -0.035136443 4291734918
-0.33178726 0.031745002 -0.034220885 4291602559
-0.33182329 0.033500772 -0.034333698 4291797886
-0.33185941 0.035259023 -0.03444666 4291666034
-0.33260727 0.03723114 -0.035589412 4290010949
-0.33371964 0.039327677 -0.037260074 4289546529
-0.33484259 0.041446444 -0.038946629 4289480734
-0.33634409 0.043705493 -0.041181836 4289284904
-0.33823854 0.046118293 -0.043986764 4289614898
-0.33865103 0.048065212 -0.044646934 4290671165
-0.33906487 0.0500209 -0.045309294 4291323209
-0.33985892 0.052118294 -0.046522763 4291457606
-0.33989671 0.053958882 -0.046641011 4291721792
-0.34793574 -0.0061290441 -0.059284069 4291660645
-0.34797254 -0.0042921705 -0.059402935 4291984443
-0.34759983 -0.0025004656 -0.058926821 4291326006
-0.34722844 -0.0007122184 -0.058452412 4290533416
-0.34604859 0.0009660935 -0.056802467 4290203433
-0.34448153 0.0025748217 -0.054588899 4289943602
-0.34332883 0.0042227614 -0.052977215 4290283093
-0.34063497 0.005617755 -0.049123019 4291208831
-0.33990213 0.0072911852 -0.048120722 4291337587
-0.33841494 0.0088278977 -0.046020336 4291397734
-0.33694679 0.010347465 -0.043946907 4291396445
-0.33549732 0.011850214 -0.041899979 4290807391
-0.33225876 0.0129897 -0.037247226 4291006826
-0.33086777 0.01445056 -0.035283513 4291269488
-0.33019608 0.016041119 -0.034366883 4290941551
-0.32952857 0.017624278 -0.033456035 4290876016
-0.32886523 0.019200118 -0.032550994 4291009655
-0.32959792 0.021088583 -0.033680242 4291076988
-0.3303352 0.022991152 -0.034816682 4291340414
-0.32966748 0.024562577 -0.033905067 4291340159
-0.33005315 0.026391886 -0.034529321 4291274110
-0.33044007 0.028229317 -0.035155687 4291469180
-0.33082819 0.030074904 -0.035784088 4291337338
-0.3305102 0.031733718 -0.035382487 4291402871
-0.33089855 0.033589672 -0.036011554 4291402355
-0.33093381 0.035350777 -0.03612553 4291662691
-0.33203572 0.037432887 -0.037796788 4290204471
-0.333148 0.039537057 -0.039483875 4289546277
-0.33427083 0.041663598 -0.04118707 4289350183
-0.3354044 0.043812871 -0.042906556 4290661431
-0.33766755 0.046353757 -0.046277165 4290012487
-0.33807954 0.048307404 -0.04694394 4290141749
-0.33887067 0.050400194 -0.048165239 4290403638
-0.33928666 0.052374948 -0.048838604 4291062587
-0.33932361 0.054221578 -0.048958115 4290998595
-0.34532502 -0.0080939792 -0.058615386 4291789388
-0.34495756 -0.0063098446 -0.058143452 4291195963
-0.34459135 -0.0045290706 -0.057673268 4291255853
-0.34422642 -0.002751691 -0.057204824 4290926633
-0.34306821 -0.0010767614 -0.055572622 4290269476
-0.34231421 0.00063616323 -0.054532837 4290006308
-0.3411749 0.0022858102 -0.052927382 4289809194
-0.33927751 0.0038085028 -0.050208688 4289877298
-0.33816773 0.005426486 -0.048645183 4291060549
-0.33669308 0.0069703297 -0.046545483 4291328333
-0.33560812 0.0085600363 -0.045017287 4291068764
-0.33453357 0.010137049 -0.043503825 4290869077
-0.33023444 0.011102257 -0.037252683 4290672981
-0.32956165 0.012703442 -0.036327608 4290805849
-0.32854348 0.014227026 -0.034894653 4290872674
-0.32753479 0.015738973 -0.033475086 4290744426
-0.32756841 0.017462285 -0.033587418 4290810217
-0.32691225 0.01903392 -0.032685544 4290941806
-0.32729027 0.020836331 -0.03330439 4291335791
-0.32836384 0.022812476 -0.034946669 4291336306
-0.32805002 0.024465153 -0.034548391 4291207284
-0.32843167 0.026291605 -0.035173461 4291140981
-0.3288146 0.028126173 -0.035800654 4291206004
-0.32954988 0.030063475 -0.036946841 4291073392
-0.32958415 0.031819753 -0.037061322 4291202412
-0.32997081 0.033678852 -0.037694868 4291202663
-0.33035865 0.035546239 -0.038330525 4291399265
-0.33110353 0.037528731 -0.03949241 4290072113
-0.3322123 0.039636802 -0.041190989 4289611820
-0.33333158 0.041767303 -0.042905752 4290014010
-0.33446151 0.043920599 -0.04463698 4290007877
-0.33671835 0.046466708 -0.048030421 4290074679
-0.33712852 0.048423786 -0.048701916 4290142005
-0.33791694 0.050520461 -0.049931698 4290537789
-0.33871052 0.052633233 -0.051169559 4290669889
-0.33874664 0.054485958 -0.05129033 4290210637
-0.34152141 -0.011943429 -0.056079451 4292186718
-0.34234518 -0.010071877 -0.057365295 4291003200
-0.34317446 -0.0081854388 -0.058659855 4290733106
-0.34241402 -0.0064476295 -0.05760324 4290599722
-0.3424485 -0.0046317372 -0.057722446 4290401833
-0.34169307 -0.0029063656 -0.05667273 4290203431
-0.34094259 -0.0011898272 -0.055630028 4290202147
-0.33980906 0.0004663867 -0.054019868 4290005538
-0.33868665 0.0021089441 -0.052425593 4289874217
-0.3353169 0.0034035423 -0.047502439 4289742890
-0.3331351 0.0048338301 -0.044337075 4290466865
-0.33280331 0.0065350421 -0.043911591 4290666047
-0.33138719 0.0080477195 -0.041879077 4291000148
-0.33034506 0.0096074892 -0.040400151 4290936663
-0.32721138 0.010763691 -0.035820063 4290605904
-0.32655221 0.01235373 -0.034907345 4290868046
-0.32589713 0.013936363 -0.034000345 4290804050
-0.3252461 0.015511696 -0.033099093 4290673494
-0.3252787 0.017227214 -0.033211704 4290675032
-0.32497096 0.0188687 -0.032819435 4290741089
-0.325344 0.020665498 -0.033437431 4290938978
-0.32674906 0.022717591 -0.035587743 4290873960
-0.32678205 0.024453396 -0.035701685 4290808681
-0.32716087 0.026279977 -0.036329366 4290743146
-0.32788897 0.028206239 -0.03747613 4291004516
-0.3286216 0.030146929 -0.038630139 4291135330
-0.32865503 0.031906053 -0.038745612 4291070306
-0.32939243 0.033869274 -0.039907485 4291530597
-0.32977974 0.035742909 -0.040549409 4291392595
-0.33052421 0.037732352 -0.041722722 4290925112
-0.33163279 0.039848145 -0.043438006 4289813051
-0.33275193 0.041986503 -0.045169696 4289747250
-0.3338818 0.044147804 -0.046918049 4289811510
-0.33613935 0.046704415 -0.050345149 4290272826
-0.33654895 0.048668291 -0.051023416 4289816128
-0.33771554 0.050904613 -0.0528288 4289881922
-0.33851135 0.053029045 -0.054082926 4290143809
-0.33854669 0.054890871 -0.054205157 4290342995
-0.33976227 -0.013787347 -0.056592271 4292447819
-0.33979547 -0.011990285 -0.056711089 4291852096
-0.34061128 -0.010121871 -0.057997759 4290802483
-0.34143254 -0.0082385521 -0.059293132 4290401833
-0.34067816 -0.0065033301 -0.058237005 4290204198
-0.33992878 -0.0047770157 -0.057188008 4289941290
-0.33918437 -0.0030595213 -0.056146063 4289810215
-0.33806035 -0.0013992124 -0.054536693 4290071331
-0.33618924 0.00014610984 -0.051810671 4289874466
-0.33472067 0.0017217054 -0.049685117 4289742119
-0.33253664 0.0031702665 -0.046489485 4289611302
-0.330394 0.0045938664 -0.043354481 4289942833
-0.32971025 0.0062261643 -0.042399552 4290335801
-0.32832363 0.0077290526 -0.040393203 4290599990
-0.32591453 0.0090290038 -0.036856752 4290804561
-0.32525846 0.010622091 -0.035941478 4290804309
-0.3249478 0.012274332 -0.03554276 4290866249
-0.32429779 0.013854912 -0.034636036 4290866503
-0.32365176 0.015428221 -0.033735 4290605899
-0.32402182 0.017215049 -0.03435488 4290540621
-0.32337776 0.018780487 -0.033456437 4290737745
-0.32374689 0.020574493 -0.034075249 4290869843
-0.32513905 0.022623029 -0.036226977 4290804824
-0.32551387 0.024441661 -0.036855187 4290740061
-0.32623479 0.026356919 -0.038002409 4290609759
-0.32696021 0.02828652 -0.039156932 4290805852
-0.32804066 0.030326065 -0.040844195 4291003231
-0.32807326 0.032090802 -0.040960871 4291726947
-0.3288103 0.034060892 -0.042134162 4291461466
-0.32919696 0.035940807 -0.042782392 4290999367
-0.32994106 0.03793728 -0.043967277 4290335293
-0.33104947 0.040060822 -0.045699444 4290007858
-0.33180538 0.042091209 -0.046903219 4289943858
-0.33293158 0.044256575 -0.048663475 4290076988
-0.3351827 0.046818439 -0.052113745 4289226306
-0.3367191 0.049172748 -0.054492034 4288242245
-0.33751196 0.051292509 -0.055754296 4289160002
-0.33831006 0.053428691 -0.057024918 4289815622
-0.33834463 0.055299763 -0.05714862 4291134556
-0.33724037 -0.015673533 -0.055943061 4291466851
-0.33842981 -0.013802912 -0.057803955 4292246076
-0.33885047 -0.011974338 -0.058508329 4291984188
-0.33927259 -0.010137214 -0.059215147 4290799409
-0.33969614 -0.0082915267 -0.059924502 4290532904
-0.33855924 -0.0065991348 -0.058283608 4290467883
-0.33820441 -0.0048350529 -0.057820357 4290072105
-0.33708236 -0.003165687 -0.056200847 4289875748
-0.33559266 -0.0015581071 -0.054026574 4290007075
-0.33412221 3.1210086e-05 -0.051880464 4289940771
-0.33303976 0.0016550383 -0.050318632 4289742115
-0.3305122 0.0030478756 -0.046576656 4290070306
-0.3283945 0.0044682557 -0.043451514 4290468656
-0.32771832 0.0060959347 -0.042500135 4290204976
-0.32565302 0.0074750851 -0.039452132 4290400043
-0.32430774 0.0089542586 -0.037489671 4290796344
-0.32365674 0.010545249 -0.036574658 4290932808
-0.32300973 0.012128868 -0.035665434 4291195978
-0.32236677 0.01370518 -0.03476188 4290867017
-0.3223975 0.015415927 -0.034875792 4290604359
-0.32242826 0.017129077 -0.034989864 4290538824
-0.32212365 0.018768461 -0.034597103 4290801223
-0.32282653 0.020641616 -0.035727199 4290737484
-0.32421431 0.022693843 -0.037893254 4290606673
-0.32458735 0.02451551 -0.038525786 4290540886
-0.32565072 0.026523245 -0.040202759 4290672470
-0.32637572 0.028459499 -0.04136857 4290870102
-0.32745591 0.03050635 -0.043072298 4290937438
-0.32748771 0.032276731 -0.043190174 4291262811
-0.32822427 0.034253702 -0.044374965 4290601276
-0.32896549 0.036245599 -0.045567352 4290794797
-0.3297115 0.038252607 -0.046767481 4290271281
-0.33046219 0.040274836 -0.047975317 4290075187
-0.33121774 0.042312477 -0.049191013 4289684284
-0.33234379 0.044485942 -0.050968681 4288766785
-0.33422273 0.046932861 -0.053888239 4287587139
-0.33613217 0.049422059 -0.05685525 4287258690
-0.3373062 0.051684186 -0.05870853 4289029183
-0.33810654 0.053832285 -0.059995934 4289815885
-0.33591518 -0.015689127 -0.057148125 4291661151
-0.33748329 -0.013790087 -0.059602339 4291589435
-0.33751473 -0.011989794 -0.059723046 4291194936
-0.33793369 -0.010152563 -0.060432721 4290469164
-0.33796525 -0.0083442945 -0.060553968 4290598695
-0.3372229 -0.0066141612 -0.059498884 4290732077
-0.33648551 -0.0048929011 -0.058450885 4290203941
-0.33499384 -0.0032711851 -0.056255512 4289940767
-0.33352154 -0.0016679716 -0.054088712 4289874717
-0.33243757 -3.3054559e-05 -0.052511856 4290006044
-0.33136407 0.0015885804 -0.050950304 4289873436
-0.32921717 0.0030340992 -0.04775444 4290136095
-0.3271108 0.0044547371 -0.044619001 4290729005
-0.32643771 0.006082586 -0.043664787 4290531115
-0.3243835 0.007461986 -0.040606741 4290921770
-0.32338569 0.0090031624 -0.039156709 4291187505
-0.32239714 0.010532498 -0.037720233 4291055663
-0.32175317 0.012116287 -0.036808293 4290733370
-0.32111317 0.013692762 -0.035902049 4290407246
-0.32114303 0.015403655 -0.03601677 4290474315
-0.32150748 0.017190695 -0.036641769 4290604617
-0.32120287 0.018832583 -0.036246687 4290933063
-0.3225776 0.020868225 -0.038413238 4290671432
-0.32396936 0.022931488 -0.040606793 4291196494
-0.32468703 0.024848791 -0.041772511 4291593562
-0.32575658 0.026870739 -0.043475956 4291263574
-0.32648554 0.02882033 -0.04466011 4290607186
-0.32721913 0.030784659 -0.045851909 4290208331
-0.32760322 0.032663554 -0.046510395 4290603068
-0.3283439 0.034654319 -0.047714014 4290732334
-0.32873166 0.036553282 -0.048378874 4290664494
-0.32947952 0.03857094 -0.049594458 4290142010
-0.33023214 0.040603951 -0.050817914 4289094206
-0.33098966 0.042652521 -0.052049331 4288110658
-0.33211908 0.044838224 -0.053850166 4287324482
-0.33437857 0.047426764 -0.057380483 4286668867
-0.33630082 0.049936347 -0.060396258 4287717185
-0.33709818 0.052079715 -0.061691999 4289421888
-0.33790085 0.054239821 -0.06299641 4290276945
-0.33458978 -0.015704747 -0.058353402 4291529305
-0.33614823 -0.013805675 -0.060816407 4290998588
-0.33656397 -0.011973823 -0.061528567 4290537269
-0.33659458 -0.010167907 -0.061650481 4290075178
-0.33701184 -0.0083220238 -0.062365573 4290205480
-0.33588636 -0.0066292142 -0.060714338 4290270503
-0.33515242 -0.0049077719 -0.059663203 4290071582
-0.33366853 -0.003285828 -0.057460781 4289743134
-0.33220392 -0.0016824126 -0.055287007 4289612060
-0.33112541 -4.7294445e-05 -0.053705204 4289939225
-0.33005729 0.0015745675 -0.052138761 4289939484
-0.32792193 0.0030203185 -0.0489324 4290005537
-0.32582688 0.004441218 -0.045786683 4290465320
-0.32515696 0.0060692374 -0.044829618 4290661675
-0.32345656 0.0075087696 -0.042288337 4290397478
-0.32280129 0.0091144089 -0.041352801 4290398759
-0.32181153 0.010648084 -0.039902549 4290399788
-0.32116649 0.012236507 -0.038981885 4290729006
-0.32052544 0.01381758 -0.038067043 4291056688
-0.32055452 0.015533819 -0.038182911 4290795058
-0.32058364 0.017252475 -0.038298942 4290468665
-0.32061279 0.018973526 -0.038415153 4290274369
-0.32266608 0.02117764 -0.041647755 4290276167
-0.32372195 0.023171375 -0.043345816 4290605132
-0.32444125 0.025098527 -0.044526368 4291064138
-0.32551384 0.027131263 -0.04625164 4290927932
-0.32624453 0.029091017 -0.04745093 4290534967
-0.32662678 0.030967809 -0.048113674 4290141239
-0.32736453 0.032953974 -0.049324892 4290075698
-0.32810706 0.034955285 -0.050543971 4290404913
-0.32849538 0.036863867 -0.051217366 4289945144
-0.32924512 0.038892284 -0.052448675 4288766017
-0.32999969 0.04093622 -0.053687949 4287717698
-0.33075914 0.042995866 -0.054935351 4286996291
-0.33189198 0.045193892 -0.056759704 4286733890
-0.33303586 0.047415882 -0.058601916 4286471492
-0.33608827 0.050323788 -0.063392214 4288503616
-0.3368879 0.052479137 -0.064705089 4289815106
-0.3380813 0.05479306 -0.066626832 4291395930
-0.33364213 -0.015695211 -0.060143363 4291133008
-0.33519596 -0.013792834 -0.062623046 4290669883
-0.3359955 -0.011926181 -0.063936822 4290406199
-0.33602527 -0.01011418 -0.06406001 4290140974
-0.3360551 -0.0082996543 -0.064183354 4290008361
-0.33531475 -0.0065637194 -0.063114502 4289744164
-0.33419859 -0.0048797391 -0.061463285 4289481508
-0.33271763 -0.0032551973 -0.059246421 4289414943
-0.33162689 -0.0016015198 -0.057633147 4289480733
-0.3301793 -1.1552651e-05 -0.055466309 4289809179
-0.32911313 0.0016128747 -0.053889707 4290005537
-0.32733959 0.00311501 -0.051215958 4289940264
-0.32559407 0.0045958459 -0.048584573 4290005286
-0.32562289 0.0063489932 -0.048703749 4290202412
-0.32286939 0.007615895 -0.044507265 4290465066
-0.32221308 0.0092263296 -0.043562755 4290202664
-0.3212221 0.010764349 -0.042098578 4290071596
-0.32057598 0.012357444 -0.041169073 4290399529
-0.3192676 0.013805116 -0.039211057 4290728742
-0.3199622 0.015664779 -0.040362529 4290465318
-0.32032531 0.017463489 -0.040999737 4290334503
-0.32035375 0.019192643 -0.041117281 4290400813
-0.32241327 0.021409193 -0.044390995 4290664753
-0.32347199 0.023413489 -0.046110719 4290731827
-0.32419303 0.025350587 -0.047306314 4290468144
-0.32491863 0.027302373 -0.048509609 4290728748
-0.32600105 0.029364249 -0.050268386 4290992940
-0.32638377 0.031250507 -0.050939564 4290534450
-0.32676777 0.033145294 -0.051613063 4290011194
-0.32750979 0.035153698 -0.052844122 4289029181
-0.32825661 0.037177455 -0.054083209 4288110146
-0.32900828 0.039216738 -0.055330437 4287717447
-0.32940093 0.041155808 -0.056019183 4287194697
-0.3305262 0.043342493 -0.057849452 4286603077
-0.33166245 0.045553032 -0.059697665 4286406212
-0.33243635 0.04765977 -0.06098206 4286667844
-0.3358734 0.050715059 -0.066417985 4288897856
-0.33667535 0.052882526 -0.067748256 4289946954
-0.33269113 -0.01568567 -0.061939336 4290998854
-0.33424035 -0.013779949 -0.064435892 4290471737
-0.33465245 -0.011941716 -0.065158144 4290341175
-0.3346813 -0.010129579 -0.065282173 4290273844
-0.33509493 -0.008277243 -0.066007353 4289878317
-0.33397338 -0.0065788268 -0.06433434 4289810212
-0.33324143 -0.0048516169 -0.063269548 4289416745
-0.33176339 -0.003224496 -0.061038021 4289482023
-0.33030456 -0.0016160076 -0.058835719 4289546781
-0.32959643 7.4616983e-05 -0.057806421 4289678883
-0.32816574 0.001651303 -0.055646468 4289941289
-0.32675329 0.0032103008 -0.053514253 4289744171
-0.32535884 0.004751917 -0.051409286 4289546024
-0.3257409 0.0065732654 -0.052083928 4289874473
-0.32366148 0.0079679647 -0.048905473 4290465063
-0.32265031 0.0095288847 -0.047398444 4290137125
-0.32164866 0.011077595 -0.045905672 4289940521
-0.31998166 0.012479135 -0.043370023 4290203689
-0.31933853 0.014069461 -0.042437576 4290336041
-0.31936604 0.015796553 -0.042555787 4290007591
-0.31972846 0.017601155 -0.043199159 4289875751
-0.32009205 0.019413775 -0.043844696 4290859558
-0.32215789 0.021642916 -0.047160134 4291255341
-0.32287386 0.023572128 -0.048359696 4290400294
-0.32394221 0.02560503 -0.050112721 4290990630
-0.32466957 0.027566997 -0.051331419 4291453485
-0.3254016 0.029543905 -0.052558031 4291126065
-0.32578364 0.031436585 -0.053235829 4290076730
-0.3265228 0.033440322 -0.05447473 4288831554
-0.32726666 0.035459425 -0.055721674 4287587142
-0.32801536 0.037494052 -0.056976799 4287456585
-0.32876897 0.039544325 -0.058240205 4287128394
-0.32952741 0.041610401 -0.059511907 4286800968
-0.33029079 0.043692492 -0.06079201 4286406211
-0.33180299 0.046041008 -0.063250251 4286274883
-0.3325814 0.048163235 -0.064555474 4287519810
-0.3356562 0.051110223 -0.069473989 4289487939
-0.33684936 0.053430274 -0.071433976 4290473553
-0.33211416 -0.015650766 -0.064335741 4291128128
-0.33328134 -0.013767025 -0.066254921 4290470714
-0.33369166 -0.011925586 -0.06698221 4290406200
-0.33371961 -0.010110335 -0.06710732 4290405686
-0.33374763 -0.0082925567 -0.067232586 4290077235
-0.33377564 -0.0064722532 -0.067358039 4290008617
-0.33265975 -0.0047801496 -0.065679364 4289614891
-0.33155486 -0.0031021838 -0.0640174 4289744683
-0.33046088 -0.0014381801 -0.062371913 4289678372
-0.32937756 0.0002120698 -0.060742661 4289810213
-0.32867047 0.0019021139 -0.059706569 4289810735
-0.32688156 0.0034166505 -0.056961931 4289677866
-0.32799554 0.005374271 -0.058800731 4289546281
-0.32729754 0.0070442492 -0.057778027 4289808166
-0.32624525 0.0086422637 -0.056195203 4290005800
-0.32520309 0.010227464 -0.054627683 4290006566
-0.32417092 0.011800044 -0.053075287 4290006311
-0.32210878 0.013150672 -0.049893774 4290203945
-0.32144803 0.014763954 -0.048927139 4290073898
-0.32147506 0.016518239 -0.049048033 4289941799
-0.32081842 0.018120851 -0.048087396 4290532139
-0.32084543 0.019874571 -0.048208248 4290665001
-0.32155636 0.021795874 -0.049411759 4290728999
-0.32227179 0.023731764 -0.050622981 4290664744
-0.32333976 0.025771972 -0.052393112 4291058988
-0.32441792 0.027834142 -0.054180291 4290994998
-0.32479808 0.029724719 -0.054862414 4289618747
-0.32553428 0.031723779 -0.056109115 4288438593
-0.32627526 0.033738211 -0.057364017 4287522121
-0.327021 0.035768129 -0.058627121 4286998096
-0.3281346 0.037924752 -0.060474154 4287063372
-0.32852709 0.039875079 -0.061178382 4286669640
-0.3292875 0.041952413 -0.062466659 4286406469
-0.33042318 0.044168212 -0.064351045 4286274881
-0.33157003 0.046408396 -0.066254109 4286274881
-0.33272821 0.048673362 -0.068176158 4288372286
-0.33621362 0.051784959 -0.073794574 4289880899
-0.33702546 0.053985354 -0.075169198 4291395928
-0.3315331 -0.015615636 -0.06674815 4291127356
-0.33231896 -0.013754058 -0.06808015 4290470712
-0.33234599 -0.011941174 -0.068205923 4290208309
-0.33237302 -0.010125789 -0.068331875 4290273588
-0.33240008 -0.0083078742 -0.068458021 4290143285
-0.3324272 -0.0064874315 -0.068584315 4290338097
-0.33207402 -0.004708176 -0.068105362 4290337069
-0.33059204 -0.0030710287 -0.065829083 4290071846
-0.32987183 -0.0013557182 -0.064764932 4289613354
-0.32915634 0.00035087182 -0.063707851 4290007849
-0.32844558 0.0020488531 -0.062657885 4289810476
-0.32737476 0.0036818967 -0.061033711 4289743397
-0.32849935 0.0056568924 -0.062908217 4289743141
-0.32779312 0.0073396135 -0.061864778 4289677093
-0.32564858 0.0087563321 -0.058527224 4290007083
-0.32460502 0.010346169 -0.056944326 4290007081
-0.3235715 0.011923322 -0.055376772 4289941028
-0.32150763 0.013277188 -0.052164279 4290137897
-0.32084575 0.014895243 -0.051188242 4290139434
-0.32018811 0.016505653 -0.050218537 4290139689
-0.3195346 0.018108407 -0.049255054 4290466603
-0.31990004 0.01994193 -0.049918748 4289877286
-0.32129452 0.022033289 -0.052226786 4290007845
-0.32201159 0.023979204 -0.053453498 4290601265
-0.32308248 0.026030442 -0.055246398 4290077241
-0.32381108 0.028009648 -0.056492876 4288897088
-0.32454434 0.030004043 -0.057747457 4287849028
-0.32528231 0.032013744 -0.059010252 4287259716
-0.32602513 0.034038953 -0.060281407 4287655246
-0.32677275 0.036079794 -0.061560869 4287064661
-0.32788959 0.038248572 -0.06343203 4286669642
-0.32828265 0.040209055 -0.064145349 4286472518
-0.32904503 0.042297766 -0.065450475 4286340676
-0.3301841 0.044526268 -0.067359649 4286340418
-0.33208898 0.047036272 -0.070496649 4286536768
-0.33325842 0.049323276 -0.072456613 4288766271
-0.33678022 0.052471075 -0.078188099 4290013000
-0.330948 -0.015580244 -0.069176726 4291061049
-0.33097404 -0.013769753 -0.069303192 4290338871
-0.33100012 -0.011956734 -0.06942983 4290142003
-0.33102623 -0.010141212 -0.069556639 4290535473
-0.33105236 -0.0083231926 -0.069683634 4290274355
-0.33107856 -0.00650264 -0.069810793 4290470194
-0.33072665 -0.0047231959 -0.06933067 4290666802
-0.33000025 -0.002993522 -0.068248585 4290007079
-0.32927871 -0.001272715 -0.067173816 4289875750
-0.32893273 0.00049103587 -0.06670247 4290009645
-0.32858798 0.0022515096 -0.066232868 4289811752
-0.32787582 0.0039514811 -0.065172195 4289809958
-0.32901114 0.0059441258 -0.067083351 4289743396
-0.32829657 0.0076398365 -0.066018566 4289546534
-0.32685536 0.0091956798 -0.063783824 4290073132
-0.32579321 0.010801548 -0.062158342 4290072875
-0.32438445 0.012324536 -0.05997397 4290007078
-0.3215951 0.013545607 -0.055564918 4290663722
-0.32127371 0.01524645 -0.055129971 4290469680
-0.32060859 0.016868589 -0.054140955 4290008875
-0.31960616 0.018405067 -0.052607816 4289876776
-0.31997311 0.020250738 -0.053281855 4289614120
-0.32137597 0.022357441 -0.055626661 4289878832
-0.32209694 0.024316896 -0.056872841 4289225018
-0.32282257 0.02629141 -0.058127128 4288241474
-0.32390678 0.028376136 -0.059960749 4287128649
-0.32428792 0.030286049 -0.060660452 4286867021
-0.32502773 0.032306526 -0.061939597 4287130696
-0.32577237 0.034342606 -0.063227236 4287785549
-0.32652184 0.03639451 -0.064523354 4287262034
-0.32727623 0.038462345 -0.065828092 4286472776
-0.32803562 0.040546279 -0.06714157 4286340678
-0.32917061 0.042767324 -0.069062881 4286340419
-0.33031684 0.045012966 -0.071003385 4286340162
-0.3322345 0.047543854 -0.074192382 4287323199
-0.33341151 0.04984881 -0.076184854 4289225536
-0.33656216 0.052883837 -0.081371695 4290277199
-0.3299807 -0.015570402 -0.071009375 4290929208
-0.33000582 -0.013756768 -0.071136914 4290207286
-0.33003101 -0.011940627 -0.071264625 4290010418
-0.33005625 -0.010121955 -0.071392499 4290600496
-0.33008149 -0.0083007794 -0.071520552 4290666800
-0.33010679 -0.0064770691 -0.071648799 4290404400
-0.3301321 -0.0046508261 -0.07177721 4290470196
-0.32978028 -0.0028688698 -0.071294032 4290009134
-0.32942966 -0.0010902854 -0.07081268 4290139175
-0.32908025 0.00068496412 -0.070333049 4289942827
-0.32873201 0.0024568674 -0.069855183 4290141480
-0.3295058 0.0044006938 -0.071198784 4290139178
-0.32915637 0.006174508 -0.070719056 4289809961
-0.32843566 0.0078807408 -0.069636136 4289612584
-0.32735085 0.0095117204 -0.067961238 4289875755
-0.32518792 0.010923845 -0.064533673 4290138922
-0.32449293 0.01259187 -0.063490525 4290731309
-0.32133424 0.013745903 -0.058441468 4290730028
-0.32066378 0.015380739 -0.057436317 4290011180
-0.32068846 0.017160539 -0.057561472 4289549611
-0.3196784 0.018705482 -0.056003232 4289681197
-0.3200469 0.020563465 -0.056687761 4289485878
-0.32110995 0.022600129 -0.058503155 4288765243
-0.3218326 0.024569903 -0.059765324 4287520321
-0.32255995 0.026554827 -0.061035763 4286866762
-0.32329202 0.028555077 -0.062314615 4286735949
-0.32367244 0.03047156 -0.063021183 4286670926
-0.32441172 0.032499298 -0.064312994 4287458123
-0.32515582 0.034542754 -0.065613315 4287459408
-0.32590479 0.036602095 -0.066922285 4286934094
-0.3266587 0.038677488 -0.068240017 4286340934
-0.32741758 0.040769104 -0.069566511 4286209349
-0.3292976 0.043243069 -0.072723143 4286339907
-0.33045113 0.045506112 -0.074695602 4286406467
-0.33276647 0.048190709 -0.078565724 4288307006
-0.33395508 0.050518468 -0.080597974 4289815618
-0.33634168 0.053300787 -0.084587947 4291198551
-0.32938707 -0.015534713 -0.073464692 4290798135
-0.32941139 -0.013714894 -0.07359349 4290075957
-0.32943571 -0.011892564 -0.073722489 4289813811
-0.32946008 -0.010067722 -0.07385166 4290074927
-0.32948449 -0.0082403393 -0.073980995 4290599982
-0.32950893 -0.0064104139 -0.07411053 4290468910
-0.3295334 -0.0045779492 -0.074240245 4290272561
-0.3295579 -0.0027429711 -0.074370123 4290141746
-0.32920501 -0.00095558556 -0.073882125 4290338350
-0.32885325 0.00082842587 -0.073395871 4290074923
-0.32887775 0.0026649581 -0.073525876 4290273580
-0.32965627 0.0046225665 -0.074891485 4290139180
-0.32892692 0.0063457009 -0.0737864 4289942576
-0.32857636 0.0081248637 -0.073301844 4289745709
-0.32748273 0.0097655058 -0.071598627 4289943084
-0.32457843 0.011046936 -0.066924617 4290207021
-0.32352382 0.012649168 -0.06528312 4290664748
-0.3210707 0.01394812 -0.061345857 4290532650
-0.32074526 0.015664905 -0.060899168 4290010157
-0.32042083 0.01737871 -0.060454063 4289813554
-0.32009751 0.019089563 -0.06001053 4289159482
-0.32012141 0.020880172 -0.060137279 4288176192
-0.32084113 0.022845179 -0.061407417 4287586371
-0.3212148 0.02473581 -0.062109433 4287390282
-0.32158968 0.026635041 -0.062813938 4286936403
-0.32196581 0.02854293 -0.063520908 4286932561
-0.32234317 0.030459527 -0.064230263 4287065165
-0.32343376 0.032590166 -0.06611339 4287194702
