# .PCD v0.7 - Point Cloud Data file format
VERSION 0.7
FIELDS x y z rgba
SIZE 4 4 4 4
TYPE F F F U
COUNT 1 1 1 1
WIDTH 992
HEIGHT 1
VIEWPOINT 0 0 0 1 0 0 0
POINTS 992
DATA ascii
-0.3393724 -0.013841662 -0.056010101 4292707646
-0.33901757 -0.012078703 -0.05554989 4292047666
-0.33789414 -0.01038666 -0.053942595 4291716396
-0.3364023 -0.0087448908 -0.05178494 4291912748
-0.33455643 -0.0071602887 -0.049097966 4290532396
-0.33310747 -0.0055578705 -0.047002599 4289875240
-0.33167693 -0.0039733793 -0.044934019 4289874983
-0.33062401 -0.0023612219 -0.043428618 4289808421
-0.32958105 -0.00076188071 -0.041937586 4290006573
-0.32854789 0.00082485785 -0.040460709 4290468158
-0.32787523 0.0024513258 -0.039521951 4291591253
-0.32685813 0.0040155598 -0.038068149 4291133528
-0.32585055 0.0055676461 -0.036627922 4290999381
-0.32451108 0.0070491834 -0.034690898 4291000919
-0.32352513 0.0085754748 -0.033281926 4290743395
-0.32188109 0.0099653434 -0.030887891 4291137135
-0.32091904 0.011464661 -0.029513501 4291270260
-0.32029292 0.01301909 -0.028641326 4291008376
-0.31967059 0.014566512 -0.027774494 4291010430
-0.31970167 0.016248655 -0.027885703 4291274111
-0.32005915 0.018006787 -0.028485775 4291800963
-0.32074609 0.019849248 -0.0295796 4291866245
-0.3214373 0.021705234 -0.030680221 4291734914
-0.32213268 0.023574883 -0.031787638 4291536512
-0.32283235 0.025458327 -0.032901984 4291338108
-0.32319972 0.027266644 -0.033518732 4291468409
-0.32356825 0.029082943 -0.034137513 4291401335
-0.32393798 0.030907191 -0.034758311 4291465327
-0.32464874 0.032837342 -0.035890974 4290610274
-0.32536393 0.034781806 -0.037030753 4289873446
-0.3264288 0.036845513 -0.038695753 4289217057
-0.3278532 0.039039802 -0.040901113 4289611040
-0.32929552 0.041264076 -0.043134198 4289808673
-0.32968378 0.043168258 -0.043785714 4289808161
-0.33043075 0.04520065 -0.044976242 4290005801
-0.33046404 0.047002204 -0.045095343 4290336816
-0.33049741 0.048806306 -0.045214616 4291194673
-0.32981667 0.050356995 -0.044260968 4291722548
-0.32985002 0.052160535 -0.04438021 4292249407
-0.32952788 0.053833589 -0.043965194 4292054357
-0.33756006 -0.019244468 -0.056282386 4291399768
-0.3372077 -0.017482797 -0.055822749 4293105996
-0.33723974 -0.015699361 -0.055941496 4293037636
-0.33765638 -0.013885386 -0.056639168 4292247610
-0.33692068 -0.012156033 -0.055602375 4291256107
-0.33581021 -0.010469013 -0.054000914 4290861353
-0.3343358 -0.008831853 -0.051850718 4291386667
-0.33288032 -0.0072133266 -0.049728271 4290137384
-0.3310793 -0.005653501 -0.047084332 4289743395
-0.3300249 -0.0040305355 -0.045564592 4289743650
-0.32862422 -0.00246564 -0.043522339 4289808417
-0.32830021 -0.00077575777 -0.043102436 4289810988
-0.32692134 0.00076136313 -0.041091863 4290599222
-0.32660261 0.0024377857 -0.040679332 4290998857
-0.32559061 0.0040022088 -0.03922094 4291067480
-0.324588 0.0055544837 -0.037776187 4291064143
-0.32325542 0.0070362031 -0.035832901 4290932810
-0.32227436 0.0085626831 -0.034419496 4290607697
-0.32097012 0.010015083 -0.03251766 4291067742
-0.32000992 0.011516591 -0.031134564 4290808424
-0.31938469 0.013073325 -0.030256951 4290612076
-0.3190887 0.014691832 -0.029876322 4290877040
-0.31879359 0.016307812 -0.02949696 4291138158
-0.31914937 0.018068807 -0.030101158 4291533170
-0.31983376 0.019914353 -0.031202296 4291599991
-0.32052231 0.02177348 -0.032310266 4291404406
-0.32121512 0.023646323 -0.033425193 4291271537
-0.32157856 0.025446828 -0.034042399 4291007858
-0.32227784 0.027344305 -0.035168022 4291136622
-0.3223089 0.029071664 -0.035283025 4291267179
-0.32267579 0.030896042 -0.035906401 4291725927
-0.32338178 0.032826256 -0.037043415 4290345822
-0.32409218 0.034770813 -0.038187552 4289612592
-0.32480699 0.036729854 -0.039338931 4289086243
-0.32587171 0.038811661 -0.041020818 4289479713
-0.32729626 0.041027706 -0.043248557 4289678117
-0.32767928 0.042925704 -0.043899052 4289808936
-0.32912645 0.045190111 -0.046162717 4289940524
-0.32915884 0.046991788 -0.046282671 4290008114
-0.32919127 0.048796024 -0.046402797 4290863409
-0.32886818 0.050474659 -0.045983858 4291126834
-0.32890064 0.052281182 -0.046104137 4291458360
-0.32857856 0.053956795 -0.045686636 4291856466
-0.33623451 -0.019260356 -0.057487752 4291527247
-0.33588341 -0.017498523 -0.05702699 4292052041
-0.33591458 -0.015714981 -0.05714656 4291984457
-0.33632812 -0.013900872 -0.05784706 4291191857
-0.33521596 -0.012202161 -0.056230061 4290401833
-0.33411467 -0.010517521 -0.054628972 4290138664
-0.33265263 -0.0088825887 -0.05247898 4290269221
-0.33120939 -0.0072661703 -0.05035672 4289810474
-0.32942361 -0.005708301 -0.047712814 4289612583
-0.32837787 -0.0040875385 -0.046193335 4289546786
-0.32734206 -0.0024796647 -0.044688366 4289677346
-0.32666707 -0.00083716412 -0.043731753 4289743914
-0.32529965 0.00069806579 -0.041721169 4290140208
-0.32532978 0.002424245 -0.041836902 4290535999
-0.32432282 0.003988835 -0.040373921 4290735689
-0.32332525 0.0055413214 -0.038924623 4290934098
-0.32233691 0.007081823 -0.037488896 4290866245
-0.3213577 0.008610554 -0.036066495 4290669126
-0.32005617 0.010065 -0.034152512 4290800970
-0.31942612 0.011633334 -0.033261061 4290606932
-0.31847355 0.013127711 -0.031877659 4290673239
-0.31817758 0.014748695 -0.031494774 4290937692
-0.3178826 0.016367145 -0.031113237 4290872927
-0.31856224 0.018205298 -0.032218073 4290938980
-0.31891847 0.019979663 -0.032830086 4291135589
-0.3196044 0.02184193 -0.03394549 4291135332
-0.32029459 0.023717953 -0.035067849 4291069023
-0.3206563 0.02552147 -0.035689369 4291068512
-0.32101914 0.027332895 -0.036312915 4291003488
-0.32104933 0.029060408 -0.036428727 4291201381
-0.32174832 0.030979725 -0.037566207 4292451692
-0.32211465 0.032815203 -0.038196027 4290669390
-0.32282025 0.034759846 -0.039344542 4289482033
-0.32353023 0.036718976 -0.040500309 4289086502
-0.32458812 0.038800858 -0.042188436 4289676832
-0.32565594 0.040904704 -0.043892518 4289678121
-0.32603484 0.042799704 -0.044543825 4289809708
-0.32746854 0.045059878 -0.04680888 4289744171
-0.32785338 0.046981379 -0.047470212 4289744430
-0.32788488 0.048785772 -0.047591187 4290338096
-0.32791644 0.050592683 -0.04771233 4290667316
-0.32794803 0.052402172 -0.047833644 4290801728
-0.32797968 0.054214247 -0.047955133 4291860320
-0.33490878 -0.019276246 -0.058693301 4291656011
-0.33418009 -0.0175364 -0.05765098 4291326787
-0.33421028 -0.015755607 -0.057771202 4291064126
-0.33461943 -0.013944428 -0.058472421 4290275126
-0.33389306 -0.012217465 -0.057433072 4289941541
-0.3324244 -0.010565902 -0.055255122 4289679143
-0.33134291 -0.0088974815 -0.05367006 4289809699
-0.32990715 -0.0072808396 -0.051540993 4289744677
-0.32848978 -0.0056823916 -0.049439274 4289743651
-0.32744592 -0.0040590544 -0.047909983 4289612580
-0.3260597 -0.0024937198 -0.045854587 4289808159
-0.32538787 -0.00085104891 -0.044895127 4289742369
-0.32402754 0.0006843966 -0.042878088 4290270253
-0.32371205 0.0023585798 -0.042465072 4290467378
-0.32305491 0.0039754831 -0.041527059 4290402611
-0.32206228 0.0055281324 -0.040073249 4290930757
-0.32141539 0.0071275854 -0.03915016 4290867272
-0.32043803 0.0086585777 -0.037718747 4290602563
-0.31913927 0.010115046 -0.035792556 4290733374
-0.3185102 0.011685755 -0.03489558 4290537544
-0.31755948 0.013182255 -0.033503436 4290734407
-0.31726357 0.01480573 -0.033118315 4290933325
-0.31729227 0.016498372 -0.033232592 4290867537
-0.317321 0.018193418 -0.033347029 4290868821
-0.31800017 0.020045193 -0.034462925 4291065171
-0.31835577 0.021830242 -0.035081178 4290870359
-0.31904128 0.023706332 -0.036207814 4290608216
-0.31940022 0.025509953 -0.036831863 4290935385
-0.31976026 0.027321514 -0.037457976 4291068765
-0.31978956 0.029049123 -0.037574615 4291398498
-0.3204838 0.030968554 -0.038716417 4291720790
-0.3208473 0.032804146 -0.039348815 4290468932
-0.32121193 0.034647804 -0.039983273 4289809966
-0.32191503 0.036603704 -0.041140087 4289545253
-0.32296288 0.038681954 -0.042829424 4289742882
-0.32367688 0.040670551 -0.044004362 4289611558
-0.32439539 0.042674072 -0.04518678 4289743915
-0.32616588 0.045049358 -0.04799388 4289810733
-0.32654774 0.046970967 -0.048657928 4289745968
-0.32657832 0.048775457 -0.048779748 4290142004
-0.32731527 0.050840054 -0.049992893 4290603064
-0.32734603 0.05265541 -0.050115444 4290736971
-0.33282834 -0.019330559 -0.058732729 4291655753
-0.33285758 -0.0175521 -0.058853615 4291393605
-0.33288684 -0.015771205 -0.058974665 4290866750
-0.33291617 -0.013987845 -0.059095904 4291062081
-0.33256999 -0.012232768 -0.058636259 4290203180
-0.33222491 -0.010480955 -0.058178224 4289875492
-0.33040017 -0.0088765863 -0.055429764 4289874719
-0.32933101 -0.0072191255 -0.053849965 4289940511
-0.32827216 -0.0055751349 -0.052285485 4289743135
-0.32722351 -0.0039444268 -0.050736148 4289743139
-0.32618481 -0.0023268084 -0.049201682 4289742367
-0.32480574 -0.00076985767 -0.047139104 4289676833
-0.32344392 0.00077001483 -0.045102522 4290531371
-0.32347238 0.002501853 -0.045220252 4290990382
-0.32281202 0.0041260007 -0.044270072 4290400300
-0.32147539 0.0056283535 -0.04227072 4290727985
-0.32049081 0.0071734539 -0.040816687 4290799683
-0.31951535 0.008706714 -0.039376184 4290801481
-0.31854886 0.010228265 -0.0379491 4290799936
-0.31759125 0.011738308 -0.0365352 4290536257
-0.31664237 0.013236962 -0.035134278 4290667327
-0.31634662 0.014862937 -0.03474696 4290536515
-0.31605172 0.016486377 -0.034360927 4290668360
-0.31672612 0.018330712 -0.035480533 4290734668
-0.31707889 0.020110892 -0.036100969 4290736717
-0.31743282 0.021898882 -0.036723454 4290671438
-0.3177878 0.023694709 -0.037347954 4290739541
-0.31814393 0.025498437 -0.037974555 4291002458
-0.31883112 0.027399344 -0.039116338 4291200607
-0.31885955 0.029129717 -0.03923396 4290866003
-0.31955114 0.031052466 -0.040383469 4290666043
-0.31991288 0.032891124 -0.041020166 4290138930
-0.32027578 0.034737911 -0.041659039 4289940515
-0.32063982 0.036592845 -0.042300057 4289677345
-0.32134241 0.038563412 -0.043468554 4289677607
-0.32238999 0.040659893 -0.045174997 4289678891
-0.32310358 0.042663477 -0.04636189 4289811505
-0.32382169 0.044682138 -0.047556426 4289222453
-0.32524189 0.046960529 -0.049845815 4288632887
-0.32527155 0.048765175 -0.049968489 4289682998
-0.32635617 0.050959237 -0.051736236 4290274874
-0.32638603 0.052777566 -0.051859848 4291066705
-0.33150652 -0.019346399 -0.059934702 4291327819
-0.33153486 -0.01756783 -0.060056433 4291262534
-0.33118993 -0.015811704 -0.059595726 4291128897
-0.33159164 -0.014003308 -0.060300399 4291125568
-0.33087447 -0.012278726 -0.059258468 4290140480
-0.33053181 -0.010529555 -0.05880101 4289875493
-0.32982165 -0.0088196751 -0.057769343 4289874977
-0.32875094 -0.0071570091 -0.056173958 4289743648
-0.32805231 -0.0054668724 -0.05515936 4289546784
-0.32735816 -0.0037851015 -0.054151379 4289677601
-0.32631132 -0.0021577938 -0.052591618 4289742625
-0.32492179 -0.00059188553 -0.05049536 4289939744
-0.32354981 0.00095666613 -0.048425633 4290335787
-0.32323027 0.0026464723 -0.048001625 4290989867
-0.32222262 0.0042226454 -0.046500675 4290597165
-0.32122445 0.005786459 -0.045013938 4290530089
-0.32023558 0.0073381728 -0.043541178 4290990638
-0.31925589 0.0088778622 -0.042082228 4290928438
-0.31795466 0.010342206 -0.040119093 4290927929
-0.31732363 0.011922046 -0.039204966 4291127105
-0.31637076 0.013426849 -0.037786301 4291062084
-0.31574941 0.014990076 -0.036886536 4290668612
-0.31545365 0.016618362 -0.036496881 4290800455
-0.31580362 0.018393688 -0.037119485 4290866249
-0.31615466 0.020176802 -0.037744164 4290933582
-0.3165068 0.021967728 -0.038370859 4291329875
-0.31686005 0.023766527 -0.038999666 4291066704
-0.31721443 0.025573248 -0.039630543 4290668878
-0.31756991 0.027387913 -0.040263508 4290928196
-0.31792656 0.029210584 -0.040898584 4290137911
-0.31861541 0.031136664 -0.042055771 4289940775
-0.31930864 0.033077065 -0.043220289 4290006569
-0.3196708 0.034929935 -0.043865316 4289744934
-0.31969875 0.036686357 -0.043985531 4289744170
-0.32039863 0.038660388 -0.045161955 4289679664
-0.32110289 0.040649205 -0.0463458 4288763700
-0.32181156 0.042652883 -0.047537182 4288042040
-0.32252473 0.044671658 -0.048736241 4287320890
-0.32463372 0.04719618 -0.052131776 4288107576
-0.32466257 0.049006648 -0.05225569 4289879863
-0.32574674 0.051208947 -0.054040771 4290339649
-0.32612985 0.053166628 -0.054722976 4291530078
-0.33093032 -0.019323912 -0.062311079 4291064136
-0.33021194 -0.017583536 -0.061259437 4290998339
-0.33023939 -0.015802398 -0.061382182 4291129667
-0.32989568 -0.014046559 -0.060920324 4290732603
-0.32955313 -0.012294007 -0.060460068 4290009141
-0.32921171 -0.010544678 -0.060001496 4289678887
-0.32887146 -0.008798576 -0.059544619 4289678118
-0.32853234 -0.0070556691 -0.059089363 4289546530
-0.32819435 -0.0053159576 -0.058635727 4289480996
-0.32749438 -0.0036236898 -0.057610925 4289611554
-0.32643926 -0.0019866093 -0.056025319 4289809186
-0.32575056 -0.00031362657 -0.055017386 4290074409
-0.3243593 0.0012480584 -0.052900001 4290072620
-0.32298568 0.002792465 -0.050809529 4290399273
-0.32336122 0.0045997067 -0.051480696 4290399273
-0.32097092 0.0059460774 -0.047783073 4290333221
-0.31997776 0.0075043952 -0.046291336 4290661928
-0.31899384 0.0090506272 -0.044813618 4290793515
-0.31768733 0.010520773 -0.042825382 4291055147
-0.31705332 0.012107472 -0.041899525 4291187506
-0.31577072 0.013550265 -0.039947629 4290992952
-0.31514838 0.015117987 -0.039039344 4290667329
-0.3151747 0.016823914 -0.039156891 4290600252
-0.31520101 0.018532205 -0.039274611 4290731839
-0.31555134 0.020321095 -0.03990528 4290668877
-0.31590277 0.022117846 -0.040538024 4290733382
-0.31625527 0.023922488 -0.041172843 4290991412
-0.31660894 0.025735129 -0.041809808 4290598452
-0.31729281 0.027645744 -0.042970259 4290333746
-0.31764978 0.02947735 -0.043613281 4289742893
-0.31834009 0.031413287 -0.044785026 4289611814
-0.3187004 0.03326413 -0.045434147 4289875500
-0.31906188 0.035123181 -0.046085484 4289353007
-0.31942445 0.03699046 -0.046738949 4288434739
-0.31978825 0.038866069 -0.047394667 4287910454
-0.32015321 0.040750008 -0.048052564 4286861879
-0.3208591 0.042757284 -0.049251977 4286075192
-0.32156947 0.044779636 -0.050459091 4285878329
-0.32402143 0.047433324 -0.054432344 4288698422
-0.32440019 0.049376909 -0.055114631 4290732599
-0.32548741 0.051591624 -0.056922782 4290864712
-0.32997632 -0.019320572 -0.064109281 4291063622
-0.32963037 -0.017555162 -0.063641168 4290603844
-0.32891533 -0.015817998 -0.062586211 4290735426
-0.3285729 -0.014061996 -0.062123217 4290800188
-0.32823157 -0.012309286 -0.061661862 4290205484
-0.32789141 -0.010559827 -0.061202157 4289744425
-0.32755241 -0.0088135703 -0.060744174 4289612585
-0.32757896 -0.0070315986 -0.060867801 4289611809
-0.32760555 -0.0052471287 -0.0609916 4289546274
-0.32726765 -0.0035049294 -0.060535178 4289677089
-0.32656863 -0.0018131844 -0.059503593 4289941032
-0.3262341 -8.0008766e-05 -0.059052102 4290007856
-0.3248277 0.0014928217 -0.056892708 4290005032
-0.32308835 0.0029938882 -0.054201808 4290004779
-0.32276478 0.0046992321 -0.053766415 4290070569
-0.32071483 0.0061071753 -0.050578553 4290136612
-0.31937826 0.0076116738 -0.048526801 4290400039
-0.31872913 0.0092249783 -0.047570698 4290661927
-0.31741732 0.010700998 -0.045556977 4290792999
-0.31645051 0.012227825 -0.044092901 4290792228
-0.3154926 0.013743023 -0.042642463 4290727458
-0.31486741 0.015317476 -0.041722562 4290597929
-0.31489295 0.017031351 -0.041841473 4291054888
-0.31491852 0.018747604 -0.041960541 4290990897
-0.31494412 0.020466268 -0.042079777 4290796345
-0.31562087 0.022350647 -0.043239631 4290336050
-0.3159737 0.024164122 -0.043882325 4290464808
-0.31632766 0.0259856 -0.044527236 4290335274
-0.31701294 0.027905956 -0.045702286 4289875757
-0.31737024 0.029746581 -0.046353314 4289547567
-0.31806201 0.031692486 -0.047539838 4288893230
-0.3187581 0.03365301 -0.048733946 4288106292
-0.319121 0.035524346 -0.049395259 4287385655
-0.31914744 0.037297435 -0.049518265 4286468150
-0.31951156 0.039182428 -0.050182208 4285943351
-0.31987691 0.041075818 -0.050848413 4285550391
-0.32058436 0.043093678 -0.052063085 4285420343
-0.32061109 0.04488799 -0.052187577 4285879095
-0.32375592 0.047797095 -0.057310082 4289421110
-0.32413518 0.049750704 -0.05800109 4290928698
-0.32522535 0.051977973 -0.05983261 4291458128
-0.32974005 -0.021072585 -0.066986009 4291464548
-0.32901898 -0.019317219 -0.065913647 4290932292
-0.32830271 -0.017570918 -0.064848498 4290471744
-0.32759109 -0.015833568 -0.063790426 4290405947
-0.32724991 -0.014077463 -0.063326307 4290670144
-0.3265453 -0.012355046 -0.062278688 4290403635
-0.3265709 -0.010574977 -0.06240302 4289875498
-0.32659653 -0.0087924311 -0.06252753 4289810732
-0.32662225 -0.0070074312 -0.062652178 4289743134
-0.32701266 -0.0051778806 -0.063362978 4289677342
-0.32740441 -0.0033398764 -0.064076252 4289808416
-0.32633591 -0.0016852788 -0.062442821 4290007083
-0.3259992 5.6246245e-05 -0.061985243 4290006319
-0.32494447 0.0016886513 -0.060372822 4290004775
-0.32248884 0.0030886095 -0.056506488 4289873451
-0.3221643 0.0047993693 -0.056066945 4289938731
-0.31977037 0.0061522787 -0.052297119 4290137127
-0.31877482 0.0077196485 -0.050776429 4290334504
-0.3177886 0.0092747565 -0.049270123 4290531624
-0.31647968 0.010752877 -0.047243528 4290860073
-0.31551483 0.01228195 -0.045770194 4290466342
-0.31455889 0.013799346 -0.044310603 4290465311
-0.31425869 0.015447374 -0.043907095 4290662176
-0.31395945 0.017092787 -0.043504931 4291121188
-0.31398419 0.018811798 -0.043624993 4290728492
-0.31433302 0.020612342 -0.044267822 4290663724
-0.31500906 0.022503085 -0.04543877 4290467115
-0.31536117 0.024322489 -0.046087708 4290269995
-0.31604359 0.026238389 -0.047270041 4289811245
-0.31673026 0.028168615 -0.048459899 4288500016
-0.31708789 0.030018322 -0.049119078 4287712307
-0.31778109 0.031974297 -0.050320581 4286991924
-0.31881633 0.034046728 -0.052075189 4285943096
-0.3191807 0.035930574 -0.05274678 4285615162
-0.31954622 0.037822861 -0.053420626 4285353785
-0.31957197 0.039612524 -0.053545613 4285222712
-0.31993875 0.041518617 -0.054222103 4285746744
-0.32064998 0.043550741 -0.055455975 4285682234
-0.32067594 0.045356501 -0.055582099 4287124792
-0.32384092 0.048291128 -0.06078713 4290011190
-0.32386735 0.050128084 -0.060915422 4290666304
-0.32531846 0.052502375 -0.063350014 4291659870
-0.32915255 -0.021055726 -0.069409013 4291398241
-0.32843015 -0.019294517 -0.068325929 4290866496
-0.32771251 -0.017542411 -0.067250185 4290405690
-0.32663256 -0.015824286 -0.065587275 4290208055
-0.32629141 -0.014065193 -0.06512025 4290537532
-0.3255879 -0.012339877 -0.064065978 4290405692
-0.32525021 -0.01059013 -0.063604049 4290008365
-0.32527491 -0.0088074496 -0.063729391 4290074923
-0.32529968 -0.0070223175 -0.06385491 4289679140
-0.32532451 -0.0052347057 -0.063980594 4289677857
-0.3260757 -0.003354545 -0.065284595 4289743139
-0.32465249 -0.0017473433 -0.063061625 4289876010
-0.32467732 4.1885654e-05 -0.063187428 4289874730
-0.32362804 0.0016745178 -0.061570045 4289874216
-0.32153523 0.0031292818 -0.058257766 4289742887
-0.32121074 0.0048428308 -0.057815488 4289873192
-0.31916407 0.0062563447 -0.054575782 4290072107
-0.31816733 0.0078282841 -0.053040393 4290204203
-0.31684494 0.0093246885 -0.050975055 4290335273
-0.31553897 0.010804918 -0.048935544 4290728487
-0.31457609 0.01233624 -0.047452889 4290598440
-0.31394714 0.013925041 -0.046512585 4290270246
-0.31332204 0.015506442 -0.045578167 4290400547
-0.31334591 0.017228462 -0.04569925 4290466088
-0.31336984 0.018952878 -0.045820475 4290400811
-0.31371793 0.020759301 -0.046469502 4290336045
-0.31472045 0.022739476 -0.048184335 4289877808
-0.31507286 0.024567822 -0.048841372 4288697395
-0.31575665 0.026493538 -0.050038606 4287778355
-0.31644475 0.028433701 -0.05124345 4286466868
-0.31713718 0.030388461 -0.052456059 4285811253
-0.31817171 0.03245756 -0.054226894 4285418038
-0.3188751 0.034445412 -0.055458754 4285090871
-0.31958297 0.036448363 -0.056698587 4285222457
-0.31960794 0.038246926 -0.056825031 4285552702
-0.31997615 0.040160514 -0.057511706 4285552189
-0.32069099 0.042198803 -0.058764502 4286601277
-0.32106274 0.044132944 -0.05945788 4286207035
-0.32108802 0.045953188 -0.059585843 4288633143
-0.32357115 0.048663136 -0.063728318 4290534966
-0.32395244 0.050640408 -0.064439125 4290733382
-0.32931376 -0.021005383 -0.073077701 4291462236
-0.32858509 -0.0192325 -0.071976125 4290866753
-0.32786128 -0.017468888 -0.070882 4290275132
-0.32714227 -0.015714435 -0.069795273 4290141494
-0.32606068 -0.013997061 -0.068115354 4290273078
-0.32535353 -0.012263389 -0.067046963 4290406205
-0.32392928 -0.010605255 -0.064805277 4290142007
-0.32359394 -0.0088585513 -0.064343967 4290074410
-0.32361776 -0.0070762103 -0.064470112 4289876521
-0.32364163 -0.0052913702 -0.064596437 4289678632
-0.32366553 -0.0035040544 -0.064722925 4289809192
-0.32297429 -0.0018092042 -0.063678592 4289876266
-0.3226423 -7.2866256e-05 -0.063222222 4289875240
-0.3219578 0.0016076806 -0.062188108 4289809447
-0.32127774 0.0032799118 -0.061160851 4289743398
-0.32025397 0.0048864074 -0.059569877 4289874216
-0.31855378 0.0063610673 -0.056869097 4290072623
-0.31721753 0.0078761987 -0.054764036 4290334507
-0.31589809 0.0093747703 -0.052685458 4290269996
-0.3145951 0.010857124 -0.050632976 4290465316
-0.31396124 0.012458049 -0.049677581 4290400807
-0.31300631 0.013981877 -0.048194788 4290139178
-0.31238231 0.015565689 -0.047254618 4290072871
-0.31272846 0.017364951 -0.047907297 4289876268
-0.31275156 0.019094806 -0.048029728 4289484077
-0.31309885 0.020907149 -0.04868494 4288501043
-0.31442893 0.022978071 -0.050955694 4287713589
-0.31478164 0.02481544 -0.051620897 4286402104
-0.31546679 0.026751043 -0.052833233 4285745462
-0.31649089 0.028794914 -0.054603569 4285418039
-0.31718692 0.030763272 -0.055835146 4285288503
-0.31822729 0.032847323 -0.057634056 4285222455
-0.31893441 0.034849148 -0.058885396 4285747512
-0.31964606 0.036866289 -0.060144853 4285879354
-0.32001573 0.038787439 -0.060841881 4285882435
-0.32003999 0.040603004 -0.060970377 4285618503
-0.32075864 0.042655859 -0.062243074 4286405184
-0.32113197 0.044603243 -0.062947318 4286600505
-0.32115647 0.046435259 -0.063076973 4289355319
-0.32401356 0.04929838 -0.067877039 4290797368
-0.32584658 0.05183107 -0.070990674 4291261261
-0.32947695 -0.020954391 -0.076795869 4291461209
-0.32912052 -0.019149782 -0.076299533 4290867012
-0.32689095 -0.017462334 -0.072713949 4290341183
-0.32580432 -0.015730189 -0.071011961 4290010164
-0.32509357 -0.013984606 -0.069929406 4290074420
-0.32511666 -0.012186148 -0.070057534 4290339127
-0.32296628 -0.010587131 -0.066597894 4290405951
-0.32227409 -0.0088735735 -0.065544248 4290140978
-0.32194111 -0.0071299062 -0.065083459 4290007849
-0.321964 -0.0053478531 -0.065210432 4289679403
-0.32198691 -0.0035633016 -0.065337569 4290005544
-0.32200989 -0.0017762777 -0.065464884 4289941290
-0.32167798 -3.7051999e-05 -0.065005645 4289875496
-0.31959537 0.0014366214 -0.061651222 4289875237
-0.31823665 0.0029927511 -0.059492588 4289939750
-0.31791666 0.0047013299 -0.059051409 4289939753
-0.31691772 0.0062883939 -0.057486534 4290136876
-0.315593 0.0078017008 -0.055381708 4290334508
-0.31461596 0.0093616685 -0.053851537 4290204717
-0.31364813 0.010909487 -0.052335855 4290203688
-0.31301534 0.012512859 -0.051374558 4290073128
-0.31206244 0.014038922 -0.049882393 4290008108
-0.31176156 0.015697151 -0.049470197 4289025327
-0.31210694 0.017502306 -0.050129145 4288041011
-0.31245342 0.019315485 -0.050790317 4287254580
-0.31280097 0.021136716 -0.051453643 4286205495
-0.31413451 0.023218872 -0.053753112 4285614903
-0.31481889 0.025153201 -0.054976583 4285287738
-0.31550762 0.027102156 -0.056207947 4285419322
-0.31653741 0.029160704 -0.058006268 4285943869
-0.31723708 0.031142812 -0.059257258 4286075963
-0.31828338 0.033242054 -0.061084744 4285681978
-0.31933975 0.035363991 -0.062929966 4286799938
-0.32005745 0.037399042 -0.064213313 4286274116
-0.32008091 0.039223798 -0.064343326 4285684033
-0.32010436 0.041051157 -0.064473517 4285289538
-0.3211782 0.043238223 -0.066350684 4285616189
-0.32120186 0.045079585 -0.066481866 4287386167
-0.321578 0.047049336 -0.0671997 4290076215
-0.32410127 0.049811851 -0.071491681 4290928702
-0.32964212 -0.02090268 -0.080564477 4291460182
-0.32928208 -0.01908588 -0.080059297 4290932295
-0.3285431 -0.017295809 -0.078923181 4290538048
-0.32743269 -0.015541188 -0.077168144 4290010423
-0.3263334 -0.013801578 -0.075430825 4289941809
-0.32487723 -0.012108139 -0.07309816 4290075187
-0.32199997 -0.010568976 -0.068396531 4290471485
-0.32130885 -0.0088525321 -0.067336127 4290340669
-0.32097599 -0.0071059642 -0.066872559 4290008875
-0.32029158 -0.0054041287 -0.065822601 4289877546
-0.31996205 -0.0036666666 -0.065364093 4290006568
-0.31928429 -0.00197922 -0.064324409 4290006568
-0.31895801 -0.00025071856 -0.06387087 4290006568
-0.31623375 0.001113277 -0.059414443 4289939744
-0.31591704 0.0028171083 -0.058975469 4290004768
-0.31560132 0.0045179836 -0.058538053 4290070307
-0.31495139 0.0061571393 -0.05754216 4290267688
-0.31430554 0.0077884085 -0.05655263 4290270508
-0.31366378 0.0094118882 -0.055569541 4290205741
-0.31269798 0.01096202 -0.05404425 4289877807
-0.31239235 0.012635788 -0.053622201 4288894767
-0.31176263 0.014236349 -0.052657902 4288368946
-0.31145993 0.015902113 -0.052240286 4286992436
-0.31180555 0.017716125 -0.052907426 4285745719
-0.31215227 0.019538222 -0.053576816 4285483063
-0.31250009 0.021368442 -0.054248426 4285484088
-0.31383711 0.023461966 -0.05657709 4285354557
-0.31452286 0.025406307 -0.057816021 4285354815
-0.31521302 0.027365407 -0.059063017 4285684801
-0.31624538 0.029435128 -0.060884278 4286471490
-0.31728768 0.031527154 -0.062723152 4286668867
-0.31799555 0.033538494 -0.064002246 4286142274
-0.31905466 0.035672203 -0.065871231 4286603849
-0.319774 0.037718207 -0.067171142 4285814339
-0.32014677 0.039665814 -0.067890204 4285288505
-0.32016945 0.041505069 -0.068022102 4285353783
-0.32124957 0.043708682 -0.069929585 4285485369
-0.32127243 0.045562118 -0.070062496 4288632117
-0.32165018 0.047545575 -0.070791654 4290797109
-0.32602325 0.05100577 -0.078234591 4291126340
-0.3301962 -0.020832893 -0.085034192 4291590738
-0.3294456 -0.019021079 -0.083870322 4290997831
-0.32985309 -0.017148428 -0.084651664 4290669379
-0.32872194 -0.015373639 -0.082847655 4290273850
-0.32722428 -0.013643567 -0.080426671 4289877042
-0.32574666 -0.01193406 -0.078038163 4290074161
-0.32174605 -0.010483519 -0.071405098 4290338359
-0.32105145 -0.0087588085 -0.070330508 4290340415
-0.32000753 -0.0070819184 -0.06866762 4290075441
-0.31827617 -0.0055015208 -0.065846868 4289943338
-0.31691524 -0.0039005354 -0.063648388 4289877294
-0.31625172 -0.002225711 -0.062623389 4289942828
-0.31525403 -0.00060758187 -0.061034963 4290005800
-0.31393164 0.0009469926 -0.058898699 4289939230
-0.31361917 0.0026431277 -0.058463462 4289874210
-0.31330767 0.0043363697 -0.058029734 4290137123
-0.31299719 0.0060267118 -0.057597555 4290270507
-0.31235862 0.0076534022 -0.056611829 4289813551
-0.31205115 0.0093354695 -0.056184221 4288960562
-0.31141856 0.010949085 -0.055207886 4288304178
-0.31176531 0.012759487 -0.055884123 4286796596
-0.31081051 0.014294144 -0.054363303 4286008118
-0.3108311 0.016035626 -0.054488998 4285614133
-0.31150112 0.017931914 -0.055711873 4285287736
-0.3118481 0.019763017 -0.056389634 4285550394
-0.31252453 0.021684837 -0.057624597 4285750082
-0.3135367 0.023707345 -0.059427891 4285684554
-0.31422386 0.025661783 -0.060682554 4285750341
-0.31525221 0.027724311 -0.062515102 4285685829
-0.31629044 0.029809082 -0.064365357 4287064903
-0.31733868 0.031916451 -0.066233598 4286805076
-0.3183971 0.034046765 -0.068120077 4286209609
-0.31911567 0.036091696 -0.069432169 4285747778
-0.32019138 0.038264826 -0.071349896 4285353784
-0.32056689 0.040229257 -0.072082438 4285157176
-0.32094365 0.042202737 -0.072817609 4285353785
-0.32203725 0.044431526 -0.074768223 4285878840
-0.32205936 0.046303321 -0.074903324 4289420086
-0.32499182 0.049228869 -0.079974212 4291125303
-0.32649875 0.051679656 -0.082629681 4291654987
-0.32997862 -0.020797169 -0.088257067 4291590221
-0.32961112 -0.018955419 -0.087733589 4290867271
-0.32963219 -0.017093593 -0.08786884 4290669637
-0.3288801 -0.015283099 -0.086692587 4290405696
-0.32775104 -0.013512118 -0.084876172 4290075704
-0.32625648 -0.011788967 -0.082438491 4290205231
-0.32294062 -0.010260213 -0.076907419 4290141237
-0.32150987 -0.0085904263 -0.074574836 4290339643
-0.32045418 -0.0069004819 -0.072878309 4290142522
-0.31730849 -0.0054749334 -0.067629747 4289746479
-0.31595069 -0.0038714134 -0.065417133 4289745967
-0.31597072 -0.0021012342 -0.065545723 4289681203
-0.31295362 -0.0007660907 -0.060510084 4289874470
-0.31231019 0.00088267482 -0.059509084 4289940772
-0.31167075 0.0025235163 -0.058514509 4289810475
-0.31103539 0.0041564638 -0.057526376 4289418542
-0.31072903 0.0058392766 -0.057097815 4288894770
-0.31042367 0.0075192465 -0.056670826 4287976756
-0.31044337 0.0092592835 -0.056797229 4286467893
-0.31013897 0.010936122 -0.056371666 4286007350
-0.3104828 0.012746637 -0.057050567 4285549621
-0.3101784 0.014422918 -0.056624968 4285156149
-0.31052238 0.016243776 -0.057304613 4285287993
-0.31119367 0.018149754 -0.058542918 4285749310
-0.31154087 0.019989951 -0.059229117 4286075710
-0.31254908 0.022005251 -0.061043527 4285817165
-0.31390154 0.024129663 -0.063446537 4285487695
-0.31459442 0.026101165 -0.0647249 4286079557
-0.31529173 0.028087802 -0.066011533 4285816646
-0.31667933 0.030286303 -0.068478003 4287325513
-0.31773698 0.032413132 -0.070382133 4286868307
-0.31845477 0.034456942 -0.071706451 4285748805
-0.31952977 0.036626685 -0.073642224 4285353529
-0.32061538 0.03882036 -0.075597204 4285157430
-0.32099369 0.040801946 -0.076343648 4285222711
-0.32173294 0.042914152 -0.077707939 4285354296
-0.3228403 0.045168735 -0.079703063 4287058487
-0.3250668 0.047841635 -0.083614923 4290075703
-0.32546028 0.049888875 -0.084390529 4291059518
-0.32660517 0.05222467 -0.086453438 4292053339
-0.33015001 -0.020743309 -0.092183255 4291458636
-0.32977876 -0.018888859 -0.091650292 4290867529
-0.33019057 -0.016989872 -0.092457667 4290539081
-0.32942906 -0.015164041 -0.091256395 4290472261
-0.32828659 -0.013378394 -0.089401931 4290405439
-0.32830679 -0.011508695 -0.089538626 4290206518
-0.32565936 -0.0098896353 -0.085103571 4290468659
-0.32455516 -0.0081529627 -0.083311863 4290405177
-0.32309359 -0.0064722928 -0.080906376 4290012737
-0.31668371 -0.0054067601 -0.070012383 4289748280
-0.31532463 -0.0037983865 -0.067778148 4289745966
-0.31398302 -0.0022081581 -0.065572701 4289614386
-0.31332812 -0.00053871528 -0.064544991 4289941542
-0.31102163 0.00086885237 -0.060680948 4289942570
-0.31038538 0.002509838 -0.059683494 4289091632
-0.30975315 0.0041429554 -0.05869253 4287451701
-0.30912492 0.0057682996 -0.057707932 4286270517
-0.30882162 0.0074458844 -0.057281412 4285810485
-0.30884036 0.009183309 -0.057408441 4285351990
-0.30885917 0.010923188 -0.057535648 4285220665
-0.30952322 0.012802329 -0.058773033 4285156663
-0.30986631 0.014624004 -0.059458826 4285747769
-0.3102105 0.016453858 -0.060146935 4285486141
-0.31121144 0.018447587 -0.06196617 4285751368
-0.31155995 0.020300006 -0.062662907 4285878333
-0.3125737 0.022329733 -0.064506039 4286077770
-0.31359717 0.024381369 -0.066366963 4285422410
-0.31463054 0.026455281 -0.068245962 4286079049
-0.31567392 0.028551767 -0.070143335 4285817156
-0.31672743 0.030671207 -0.072059304 4285748544
-0.31779125 0.032813884 -0.07399416 4285549625
-0.31886554 0.0349802 -0.075948156 4285287224
-0.31995046 0.037170459 -0.077921607 4285156663
-0.32104614 0.039385058 -0.079914793 4285157431
-0.32142735 0.041384116 -0.080675423 4285157433
-0.32217318 0.043515883 -0.082066298 4285420089
-0.32477137 0.046308152 -0.086658366 4288566839
-0.3255398 0.048494227 -0.088090852 4290928182
-0.32593641 0.050559994 -0.088881455 4291323461
-0.33032358 -0.020688726 -0.096164115 4291392842
-0.32994851 -0.018821377 -0.095621511 4291063882
-0.32957476 -0.016957877 -0.09508092 4290670152
-0.32920232 -0.015098246 -0.094542392 4290538566
-0.32805416 -0.013303591 -0.09266232 4290603075
-0.3280735 -0.011424145 -0.092800602 4290667835
-0.32579309 -0.009761529 -0.088960297 4290666806
-0.32505605 -0.0079745948 -0.08778882 4290472255
-0.32395029 -0.0062390431 -0.08597856 4290078528
-0.31675071 -0.0052542561 -0.073615938 4289814331
-0.31503734 -0.0036806711 -0.070748672 4289811242
-0.31369022 -0.0020834249 -0.068514347 4289942572
-0.31336978 -0.00035700688 -0.068058111 4290073642
-0.31005991 0.00090540462 -0.062419832 4289812014
-0.30909979 0.0024961594 -0.060852677 4287321139
-0.30814871 0.0040743914 -0.059300397 4285679669
-0.30784559 0.0057549612 -0.058871441 4285221429
-0.30786344 0.0074928263 -0.058999311 4285090358
-0.30788136 0.0092330901 -0.059127364 4285222970
-0.30822036 0.011041588 -0.059813041 4285354303
-0.30920777 0.012996248 -0.061625272 4285353786
-0.30955106 0.014826967 -0.062319618 4286930241
-0.31022277 0.016741332 -0.063585028 4286404931
-0.3112292 0.018749218 -0.065433018 4286209866
-0.31191164 0.020696301 -0.066718847 4285814336
-0.31293428 0.022744276 -0.068596996 4286538308
-0.31396681 0.024814537 -0.07049349 4285750598
-0.31500936 0.026907435 -0.072408557 4285553996
-0.31571633 0.028925931 -0.073740616 4285288506
-0.31712517 0.031162435 -0.076295473 4285091127
-0.31819874 0.033325255 -0.078267895 4285156664
-0.31928295 0.035512067 -0.080259986 4285221689
-0.32001814 0.037609566 -0.081645206 4285222456
-0.32112047 0.039841205 -0.083671071 4285222969
-0.32186797 0.041975968 -0.085079595 4285485885
-0.32262057 0.044127703 -0.086497784 4286340417
-0.32486916 0.046819188 -0.09052638 4289684027
-0.32564214 0.049021985 -0.091982611 4291322170
-0.32604066 0.051102817 -0.092786118 4291916619
-0.33010185 -0.020651568 -0.099507749 4291327049
-0.32972422 -0.018774377 -0.098957345 4290932552
-0.32974276 -0.016876472 -0.099097878 4290669895
-0.32897297 -0.015031734 -0.09786281 4290604101
-0.32820857 -0.013197176 -0.096636541 4290734657
-0.32783756 -0.011338687 -0.096096605 4290866238
-0.32669556 -0.0095580909 -0.094209783 4290864700
-0.32594687 -0.0077533266 -0.093009196 4291128381
-0.32482427 -0.0060010552 -0.091154628 4290604093
-0.32296655 -0.004354517 -0.088014036 4289944887
-0.3211399 -0.0027330082 -0.084926188 4290007848
-0.32226121 -0.00073297496 -0.086992539 4290074156
-0.31972209 0.00075182732 -0.082656413 4290205228
-0.30975014 0.0010436405 -0.065310933 4289550128
-0.30846101 0.0025882681 -0.063154578 4286401330
-0.30750906 0.0041711489 -0.061587412 4285221429
-0.30688506 0.0057991738 -0.060593806 4285288248
-0.30690205 0.0075398819 -0.060722701 4285484346
-0.30723917 0.0093462486 -0.061412662 4285686343
-0.30757734 0.011160705 -0.06210497 4285883211
-0.30856395 0.01312225 -0.063934579 4285881927
-0.30923262 0.015031882 -0.065207742 4286604366
-0.30990559 0.016956117 -0.066489212 4287062347
-0.3109144 0.018974774 -0.068360753 4287586372
-0.31193295 0.021015357 -0.070250504 4286275135
-0.31296134 0.023078194 -0.072158717 4285485116
-0.31399974 0.025163634 -0.074085623 4285286967
-0.31504831 0.027271975 -0.076031521 4285090106
-0.31610715 0.029403562 -0.077996694 4285353018
-0.31717649 0.031558782 -0.079981409 4285551677
-0.31825644 0.033737946 -0.081985995 4285617215
-0.31934714 0.035941459 -0.084010705 4285419065
-0.32008654 0.038054515 -0.085418552 4285287994
-0.32119557 0.040303454 -0.087477826 4285551677
-0.3219474 0.042454228 -0.08890947 4286668360
-0.32494906 0.045394365 -0.094303325 4288772175
-0.3257266 0.047604743 -0.095783159 4290866238
-0.32612687 0.049694736 -0.096599333 4291388224
-0.32652861 0.051794678 -0.097418554 4292381790
-0.33146515 -0.022459794 -0.10556964 4291923809
-0.32947975 -0.02063226 -0.10218647 4291392072
-0.32910091 -0.018748431 -0.10163032 4290932294
-0.32911852 -0.016843747 -0.10177225 4290669637
-0.32834727 -0.014992579 -0.10052451 4290669637
-0.32797244 -0.013120518 -0.099974774 4290931523
-0.32799006 -0.011217906 -0.10011654 4291063106
-0.32722682 -0.0093879942 -0.098881602 4291128894
-0.32646883 -0.0075681224 -0.097655356 4291260991
-0.32610059 -0.0057145404 -0.097116105 4291063616
-0.324588 -0.0040043769 -0.094557151 4290009137
-0.32309601 -0.0023148879 -0.092033193 4289876779
-0.32311338 -0.00043881492 -0.09217298 4289877549
-0.32053769 0.0010576345 -0.08773306 4289811758
-0.31347075 0.0018121628 -0.075355984 4288894001
-0.307818 0.0026809536 -0.065471165 4285942323
-0.30686519 0.0042685107 -0.06388896 4285353018
-0.30624038 0.0059014754 -0.062885873 4285620038
-0.30625653 0.0076477733 -0.063016005 4285878334
-0.30691382 0.0095238872 -0.064280555 4285687115
-0.30757529 0.011414345 -0.0655533 4286340940
-0.30856723 0.013389654 -0.06741178 4286146642
-0.30956867 0.01538638 -0.069288217 4286215254
-0.31024718 0.017327305 -0.070593864 4285815881
-0.31126484 0.019364102 -0.072501138 4286010177
-0.31229234 0.021423196 -0.074427091 4285616180
-0.31332991 0.023504894 -0.076371968 4285287479
-0.31437764 0.025609536 -0.07833609 4285222973
-0.31543571 0.027737483 -0.080319718 4285157702
-0.31615263 0.029788863 -0.081699274 4286338630
-0.31758344 0.032064684 -0.084346667 4286999377
-0.3183147 0.034156159 -0.085753761 4286012743
-0.31977439 0.036489379 -0.088455245 4285551164
-0.3205204 0.038622122 -0.089890681 4285684032
-0.32164004 0.040893037 -0.091990836 4287194696
-0.32465187 0.043824293 -0.097455211 4288511061
-0.32543135 0.046038013 -0.098954186 4290279762
-0.32621619 0.04826976 -0.10046364 4291520318
-0.3266198 0.050379064 -0.10129589 4291521094
-0.33124611 -0.022431558 -0.10902225 4291923040
-0.32885301 -0.020612853 -0.1048842 4291326536
-0.32847297 -0.018722303 -0.10432228 4290801223
-0.32848966 -0.016810795 -0.10446561 4290669637
-0.32811102 -0.014924959 -0.10390585 4290734916
-0.32773364 -0.013043056 -0.1033482 4291062337
-0.32775036 -0.011130322 -0.10349162 4291128644
-0.32737437 -0.009253066 -0.10293608 4291195203
-0.32699969 -0.0073796841 -0.10238268 4291327556
-0.32623759 -0.0055545187 -0.10113899 4291063872
-0.32548082 -0.0037393461 -0.09990415 4290073388
-0.32396635 -0.0020341487 -0.097318314 4289942571
-0.32436374 -8.5357344e-05 -0.098139368 4289877295
-0.32099909 0.0013147451 -0.0922525 4289484593
-0.31316817 0.0019589076 -0.078395903 4288108083
-0.30814892 0.0029360745 -0.069548026 4285745461
-0.30686203 0.0044787517 -0.0673564 4285549885
-0.30623236 0.0061214957 -0.066336818 4285488199
-0.30624774 0.007878935 -0.066468596 4285550645
-0.30723238 0.0098326197 -0.06833192 4285353013
-0.30789924 0.011739219 -0.069628567 4285614904
-0.30889973 0.013732052 -0.071522303 4285485886
-0.30990991 0.015746579 -0.073434524 4285484596
-0.31059405 0.017704442 -0.074764907 4285288756
-0.31162071 0.019759715 -0.076708764 4285419573
-0.31265742 0.021837642 -0.078671798 4285485623
-0.31370431 0.023938546 -0.080654308 4286206269
-0.31476155 0.026062766 -0.082656592 4286473037
-0.31582931 0.028210692 -0.084678918 4286539602
-0.3169077 0.030382661 -0.086721607 4286672981
-0.31799698 0.032579042 -0.088784948 4286014292
-0.31909722 0.034800205 -0.09086927 4285749571
-0.32020864 0.037046526 -0.092974864 4286470466
-0.32133132 0.039318383 -0.095102087 4287722572
-0.32435343 0.042240519 -0.10063813 4288442962
-0.32513487 0.044457596 -0.10215656 4289031495
-0.32630858 0.046827555 -0.10438007 4290602558
-0.32671407 0.048946347 -0.10522557 4291584058
-0.32751197 0.051218398 -0.1067765 4292179533
-0.33184281 -0.022371985 -0.11397979 4291595105
-0.3290199 -0.020556286 -0.10903332 4290998855
-0.3286359 -0.018652331 -0.108461 4290801476
-0.32865173 -0.016727198 -0.10860626 4290800195
-0.32826909 -0.014828065 -0.10803612 4290865476
-0.32788783 -0.012932936 -0.10746825 4291128643
-0.32711354 -0.011076952 -0.10619392 4291128644
-0.32712936 -0.0091547165 -0.10633894 4291325763
-0.32675219 -0.0072715278 -0.10577761 4291457601
-0.32637632 -0.0053922581 -0.10521838 4290931516
-0.3267839 -0.0034204749 -0.10606817 4290137897
-0.3275874 -0.0013870299 -0.10763096 4289877290
-0.32525671 0.00022220552 -0.10355366 4289812267
-0.32109487 0.0015205467 -0.096177332 4289418798
-0.31320804 0.0021616356 -0.082088426 4287125046
-0.308485 0.0031952965 -0.07369069 4285482806
-0.30685863 0.0046916422 -0.070868231 4285353525
-0.30622408 0.0063442886 -0.06983187 4285222198
-0.30623862 0.008113062 -0.069965318 4285222452
-0.30722862 0.010080459 -0.071858145 4285155639
-0.30789879 0.012000227 -0.073175222 4285418550
-0.30923739 0.014079932 -0.075699307 4285418807
-0.30992061 0.01603632 -0.077041961 4285156918
-0.31094638 0.018087715 -0.079003923 4285354552
-0.31198215 0.020161796 -0.080985315 4286469439
-0.31302822 0.022258893 -0.082986407 4286867781
-0.31408465 0.024379345 -0.085007541 4286929225
-0.3151516 0.026523544 -0.08704894 4286277461
-0.31622922 0.028691804 -0.08911097 4286075965
-0.31767783 0.030988416 -0.091845259 4285878073
-0.31878102 0.033210218 -0.093956299 4285944382
-0.31952792 0.035344783 -0.095423922 4287259971
-0.32064998 0.037613124 -0.097571559 4287851083
-0.32178357 0.03990747 -0.099741451 4288507718
-0.32445282 0.042735357 -0.10469461 4288704073
-0.325239 0.044969685 -0.10623856 4289752139
-0.3260307 0.047222417 -0.10779352 4291388475
-0.32682794 0.049493704 -0.10935952 4291584575
-0.32723695 0.051638715 -0.11022238 4292382814
-0.33203539 -0.022327151 -0.11827622 4291659872
-0.32918897 -0.020498915 -0.11324184 4291129929
-0.32880095 -0.018581396 -0.11265887 4290867015
-0.32881591 -0.016642386 -0.11280607 4290800455
-0.32842922 -0.014729767 -0.11222535 4290996550
-0.32804403 -0.012821251 -0.11164692 4291259459
-0.32805899 -0.010881129 -0.11179421 4291391043
-0.32807398 -0.0089383004 -0.1119417 4291653700
-0.328089 -0.0069927992 -0.1120894 4291457346
-0.32810402 -0.0050445688 -0.11223731 4290668348
-0.32772011 -0.0031431424 -0.11166085 4290007594
-0.32853451 -0.001086925 -0.11326107 4289681196
-0.32616827 0.00053625484 -0.10908236 4289812268
-0.32156777 0.0017855992 -0.10083982 4289287211
-0.31394765 0.0024780696 -0.087101847 4286600245
-0.31051016 0.0037406639 -0.080963373 4285417523
-0.30718321 0.0049651098 -0.075022534 4285156661
-0.30654159 0.0066302484 -0.073965348 4285155894
-0.30622923 0.0083501553 -0.073506996 4285222196
-0.30722463 0.010331509 -0.075429924 4285287476
-0.30789819 0.012264572 -0.076767862 4286860086
-0.30924451 0.01435964 -0.079332538 4286601275
-0.30993131 0.016329819 -0.080696642 4285356355
-0.31096286 0.018396217 -0.082690254 4287520838
-0.31200463 0.020485597 -0.084703743 4286472784
-0.31340498 0.022687128 -0.087372698 4286278487
-0.31447113 0.024827491 -0.089433424 4286667848
-0.31554797 0.026992003 -0.091515005 4285682754
-0.3166357 0.029180981 -0.093617775 4285682493
-0.31773448 0.031394836 -0.095742062 4286930751
-0.31884444 0.033633936 -0.097888209 4287194698
-0.31959569 0.035784632 -0.099380121 4287520577
-0.32072479 0.038070906 -0.10156374 4287978811
-0.32338479 0.040878773 -0.10654829 4288176703
-0.32416758 0.043107867 -0.10810211 4289163596
-0.32495588 0.045355365 -0.10966697 4290475610
-0.32574973 0.047621425 -0.11124305 4291717443
-0.32615647 0.049764205 -0.1121114 4291783496
-0.33223054 -0.022281658 -0.12263539 4291593567
-0.33017695 -0.020402486 -0.11900463 4291194952
-0.32978195 -0.018464299 -0.11840596 4290866503
-0.32979608 -0.016504247 -0.11855567 4290735175
-0.32940248 -0.014571126 -0.11795928 4290865989
-0.32901037 -0.012642259 -0.11736528 4291325508
-0.32902449 -0.010681124 -0.11751507 4291522371
-0.32903862 -0.0087172622 -0.1176651 4291719234
-0.32905278 -0.0067506959 -0.11781531 4291391040
-0.32906696 -0.0047813971 -0.11796574 4290405436
-0.32867622 -0.0028598909 -0.11737379 4289810475
-0.32950178 -0.00078032835 -0.11901269 4289747245
-0.32709903 0.00085703091 -0.11472908 4289812524
-0.3216686 0.001997873 -0.10488582 4289221677
-0.31434688 0.0027441727 -0.091564432 4286401843
-0.31087354 0.004012892 -0.085302815 4285351988
-0.30718142 0.005184276 -0.078635491 4285155889
-0.3065348 0.0068595568 -0.07756073 4285221940
-0.30621946 0.0085903332 -0.077094465 4286073651
-0.30722031 0.010585778 -0.07904809 4286862903
-0.30823097 0.012603226 -0.081020981 4286994240
-0.30925152 0.014642996 -0.083013393 4287584325
-0.31028217 0.016705446 -0.085025638 4287522909
-0.31132302 0.018790888 -0.087058023 4287192907
-0.31237426 0.020899694 -0.089110814 4286602305
-0.31343603 0.023032207 -0.091184311 4285879106
-0.31450847 0.025188789 -0.093278885 4286140989
-0.31559181 0.027369833 -0.095394813 4286996288
-0.31704879 0.029678447 -0.098201104 4286932297
-0.31779164 0.031806752 -0.099692032 4286865216
-0.31890851 0.034063417 -0.10187402 4287256891
-0.31966418 0.036230486 -0.10339082 4287453756
-0.32080042 0.038534977 -0.10561115 4287716928
-0.32347888 0.041368242 -0.11068086 4288574286
-0.32465512 0.043745842 -0.11297896 4289890658
-0.32545105 0.04601552 -0.11457577 4291196754
-0.32625261 0.048304066 -0.11618403 4291979073
-0.32666284 0.050467163 -0.11706981 4292507725
-0.3328498 -0.022219326 -0.12783664 4291461723
-0.33118629 -0.020303948 -0.12489359 4291063881
-0.33078417 -0.018344646 -0.12427861 4290866503
-0.3307974 -0.016363095 -0.1244309 4290800453
-0.33039671 -0.014409032 -0.12381829 4290932037
-0.33040994 -0.012425603 -0.12397075 4291195717
-0.33166981 -0.010326569 -0.12642871 4291457603
-0.33168319 -0.0083267512 -0.12658238 4291850819
-0.33169657 -0.0063241478 -0.1267363 4291325505
-0.33170998 -0.004318764 -0.12689041 4290207546
-0.33214211 -0.002258057 -0.12781997 4289745451
-0.33007732 -0.00052249146 -0.12412553 4289877549
-0.32644299 0.00095483894 -0.117521 4289746477
-0.32025197 0.0019825115 -0.10617413 4288893488
-0.31297678 0.0027294622 -0.092810459 4286204722
-0.31020877 0.0041144216 -0.087796956 4285287732
-0.30684698 0.0053469893 -0.081679039 4285287730
-0.30619735 0.0070300484 -0.080590039 4285287478
-0.30620939 0.0088335946 -0.080728658 4285812793
-0.30721581 0.01084336 -0.082713619 4287327053
-0.3082321 0.012875417 -0.08471828 4287130451
-0.30959871 0.015005838 -0.087375104 4286403399
-0.31029496 0.017007725 -0.088787854 4286730810
-0.31168899 0.019192129 -0.09149871 4286010174
-0.31274989 0.021320714 -0.093591824 4286469434
-0.31382149 0.023473416 -0.095706247 4287127359
-0.314904 0.025650615 -0.097842306 4286864964
-0.31599754 0.027852636 -0.10000034 4287060542
-0.31673709 0.029975777 -0.10150065 4287586109
-0.31784943 0.032224312 -0.10369638 4287586623
-0.3186017 0.034386188 -0.1052227 4287257663
-0.31973335 0.03668249 -0.10745709 4287388480
-0.32240242 0.03949542 -0.11255899 4287849802
-0.3239629 0.041993015 -0.11559688 4289234014
-0.32475808 0.044261813 -0.11720928 4290285672
-0.32555902 0.046549562 -0.11883338 4291588425
-0.32636562 0.048856445 -0.1204692 4291979075
-0.33348033 -0.022155812 -0.13313447 4291329368
-0.33179587 -0.020223172 -0.13012636 4291064138
-0.33180824 -0.018222386 -0.13028105 4290932040
-0.33140022 -0.016246045 -0.1296517 4290800454
-0.33141258 -0.014243401 -0.12980655 4291063365
-0.33142495 -0.012237956 -0.12996159 4291260741
-0.3322798 -0.010153082 -0.13168998 4291326017
-0.33229226 -0.0081346985 -0.13184606 4291457603
-0.33230472 -0.0061135045 -0.13200234 4291193919
-0.3323172 -0.0040895063 -0.13215885 4290205746
-0.33619961 -0.0015741601 -0.13955092 4289811499
-0.33361796 0.00013920611 -0.13485835 4289877551
-0.3298451 0.0016381262 -0.12793443 4289745455
-0.31996468 0.0021397185 -0.10957646 4288369203
-0.31266147 0.0028852813 -0.096031643 4285942323
-0.3102276 0.0043339902 -0.091596708 4285221684
-0.30684257 0.0055711698 -0.085377403 4285419060
-0.30652022 0.0073271939 -0.084893018 4285353270
-0.30686504 0.009211394 -0.085658863 4285550392
-0.30788368 0.011242991 -0.087688617 4286011717
-0.3089124 0.013297314 -0.089738704 4286010429
-0.31029627 0.015451974 -0.092456356 4285681723
-0.31100085 0.017475517 -0.093901105 4286403128
-0.31206086 0.019600106 -0.09601403 4286865988
-0.31313163 0.021748835 -0.098148532 4287258435
-0.31421328 0.023922095 -0.10030495 4287519035
-0.31494445 0.02602304 -0.10180423 4287651132
