# .PCD v0.7 - Point Cloud Data file format
VERSION 0.7
FIELDS x y z rgba
SIZE 4 4 4 4
TYPE F F F U
COUNT 1 1 1 1
WIDTH 1003
HEIGHT 1
VIEWPOINT 0 0 0 1 0 0 0
POINTS 1003
DATA ascii
-0.29924816 -0.005437525 -0.086211145 4293287218
-0.29866526 -0.0037314403 -0.085150145 4293221939
-0.29840213 -0.0019843606 -0.084710799 4293352243
-0.29845589 -0.00018810378 -0.084888078 4293156406
-0.29819369 0.0015554675 -0.084450416 4293222193
-0.29824755 0.0033538688 -0.084627897 4293419311
-0.29830149 0.005154815 -0.084805615 4293352750
-0.29835549 0.0069582621 -0.084983587 4293158196
-0.29777971 0.0086312443 -0.083934978 4292829234
-0.29814821 0.010503266 -0.084725581 4292894772
-0.29788777 0.012239265 -0.084291033 4293026098
-0.29825658 0.014122143 -0.085082725 4293092660
-0.29862669 0.016013687 -0.085877202 4293288758
-0.29868117 0.017832419 -0.086056687 4293354295
-0.29841974 0.019569628 -0.085620292 4293158710
-0.29815924 0.021303825 -0.08518555 4293027895
-0.29789966 0.023035064 -0.084752508 4293092919
-0.29764098 0.024763325 -0.084321082 4293158198
-0.29769549 0.026583215 -0.08450067 4293157940
-0.29743767 0.028308209 -0.084070824 4293092916
-0.29780471 0.030230792 -0.084860623 4292896310
-0.29785946 0.032058451 -0.085040987 4292764984
-0.29791427 0.033888724 -0.085221618 4292699447
-0.29891333 0.036051232 -0.087246761 4292765240
-0.29960328 0.038122989 -0.088668764 4292765754
-0.30029777 0.040210787 -0.090100251 4292700475
-0.30067465 0.042193323 -0.090911537 4292438332
-0.30137613 0.044309825 -0.092357814 4291782718
-0.3020823 0.046442788 -0.093813725 4289289275
-0.30312195 0.048725512 -0.095922418 4285415468
-0.3045052 0.051171459 -0.098704018 4285679146
-0.30726922 0.054229476 -0.10418799 4289748790
-0.31046104 0.057525828 -0.11051124 4291390529
-0.3144837 0.061250687 -0.11846286 4291718984
-0.31639636 0.064099856 -0.12228744 4291590221
-0.31758457 0.066652656 -0.12469519 4291923291
-0.3176702 -0.047602609 -0.12434679 4290341440
-0.31657282 -0.045602337 -0.12228089 4290404661
-0.31473246 -0.043582264 -0.11876073 4290207542
-0.31441316 -0.04165747 -0.11821537 4290337844
-0.3133505 -0.039712265 -0.11621511 4290664239
-0.31120318 -0.037758507 -0.11209112 4290925612
-0.30839059 -0.035831835 -0.10666326 4289876014
-0.30738974 -0.033965103 -0.10478072 4286857512
-0.3067463 -0.032113727 -0.10359761 4283903772
-0.30610731 -0.030272365 -0.10242268 4282919190
-0.30581662 -0.028433599 -0.10192975 4282984981
-0.30587095 -0.026588134 -0.10211272 4284953113
-0.30592531 -0.024740098 -0.10229597 4289022500
-0.30597982 -0.022889525 -0.10247945 4291321139
-0.30603433 -0.021036351 -0.1026632 4291976242
-0.30608895 -0.019180635 -0.10284721 4292370226
-0.30545592 -0.017374219 -0.10168252 4292501297
-0.30482724 -0.015577345 -0.10052596 4292566834
-0.30420282 -0.013789946 -0.099377394 4292829233
-0.30324706 -0.012046386 -0.097578101 4292960046
-0.30163944 -0.010391558 -0.09449859 4293156910
-0.30005822 -0.0087613212 -0.091469757 4293027124
-0.29882243 -0.0071134074 -0.089118101 4293091634
-0.29791936 -0.0054402091 -0.087419093 4293025331
-0.29733983 -0.0037340042 -0.086355045 4293025330
-0.29707789 -0.0019868133 -0.085914634 4293155889
-0.29681692 -0.00024270783 -0.085475914 4293025846
-0.29686975 0.0015533249 -0.085654013 4292960307
-0.29692271 0.0033518653 -0.085832328 4293156655
-0.2969757 0.0051529212 -0.086010911 4293090864
-0.29671556 0.0068928241 -0.085573696 4293092405
-0.29645634 0.008629662 -0.085138135 4292698422
-0.29682177 0.010501814 -0.08593154 4292829493
-0.29656252 0.012237933 -0.085495904 4292895283
-0.29692832 0.014120977 -0.086290382 4293092147
-0.29729536 0.016012652 -0.087087676 4293288502
-0.29734889 0.017831523 -0.08726804 4293223222
-0.29708865 0.019568881 -0.086830564 4293158708
-0.29682934 0.021303233 -0.086394757 4292962358
-0.29657099 0.023034584 -0.085960642 4293027639
-0.29631346 0.024762986 -0.085528143 4293092405
-0.29636705 0.026583046 -0.085708618 4293026099
-0.29611042 0.028308172 -0.085277699 4292961331
-0.29616407 0.030130472 -0.085458383 4292830772
-0.29621777 0.031955376 -0.085639328 4292634165
-0.29627156 0.03378284 -0.085820526 4292503095
-0.2972602 0.035941515 -0.087846197 4292503353
-0.29794279 0.038009763 -0.089268759 4292569403
-0.29862982 0.040093958 -0.090700723 4292569660
-0.29932138 0.042194325 -0.092142195 4292307772
-0.30001754 0.044310961 -0.093593352 4292045118
-0.30104265 0.046573244 -0.095694736 4290668093
-0.30207792 0.048860487 -0.097817048 4287387191
-0.30378872 0.05145045 -0.10127483 4288695854
-0.30689481 0.054669 -0.10749109 4290929977
-0.31045151 0.058143914 -0.11460046 4291652672
-0.3145009 0.061906684 -0.12268659 4291587397
-0.31530288 0.064271189 -0.12435522 4291655755
-0.31648633 0.066829547 -0.12677903 4291791194
-0.31815934 -0.047743469 -0.12949023 4290341187
-0.3178252 -0.045771211 -0.12891309 4290469431
-0.31710458 -0.043783475 -0.12757227 4290404149
-0.3163892 -0.041807324 -0.12624131 4290469940
-0.31416282 -0.039792251 -0.12192358 4290731057
-0.31124878 -0.037799157 -0.11624487 4291319342
-0.30877188 -0.035863914 -0.11142836 4291515693
-0.30670375 -0.033974443 -0.10741828 4289416747
-0.30571231 -0.032117635 -0.10553624 4285872931
-0.30507481 -0.030272989 -0.1043537 4283444249
-0.30444169 -0.028438266 -0.10317941 4282984982
-0.30449507 -0.026592659 -0.10336325 4285281310
-0.3045485 -0.024744505 -0.10354738 4289679403
-0.30460203 -0.022893755 -0.10373176 4291518003
-0.30465561 -0.021040462 -0.10391639 4291845169
-0.30470929 -0.019184604 -0.10410127 4292107568
-0.30407995 -0.01737803 -0.10293325 4292369457
-0.30345494 -0.015581029 -0.10177337 4292369714
-0.30283415 -0.013793446 -0.10062151 4292631856
-0.30155206 -0.012084085 -0.09815836 4292829230
-0.29996014 -0.010431554 -0.095080063 4292960816
-0.29871586 -0.008764348 -0.092689991 4292960563
-0.29748788 -0.0071162712 -0.090331271 4292894515
-0.29627585 -0.0054870411 -0.088003308 4292895283
-0.29601422 -0.003736567 -0.087560132 4292828721
-0.29544184 -0.0020386598 -0.08650016 4292894256
-0.29549369 -0.0002450108 -0.086678833 4292829489
-0.29523477 0.0014961241 -0.086240664 4292763443
-0.29528672 0.0032919396 -0.08641956 4292894000
-0.29502869 0.0050296234 -0.085983008 4292894770
-0.29508069 0.006827591 -0.086162113 4292830261
-0.29482359 0.0085619027 -0.085727222 4292633655
-0.29518488 0.010431079 -0.086521104 4292764212
-0.29554746 0.012308815 -0.087317839 4292830004
-0.29559982 0.014119806 -0.087498263 4292960820
-0.29596379 0.016011616 -0.088298351 4293157942
-0.2960164 0.017830629 -0.088479578 4293026870
-0.29575738 0.019568127 -0.08804103 4293027893
-0.29549927 0.02130262 -0.08760415 4292962357
-0.29524207 0.023034142 -0.087168977 4292962102
-0.29467779 0.024670975 -0.086122423 4293026614
-0.29473037 0.026488265 -0.086303458 4293026100
-0.29447585 0.028210942 -0.085873224 4292960820
-0.29452848 0.0300305 -0.086054482 4292699189
-0.29458115 0.031852614 -0.086236015 4292568887
-0.29463392 0.033677328 -0.086417794 4292437816
-0.29592258 0.035942055 -0.089062564 4292306488
-0.29659992 0.038010444 -0.090489924 4292241209
-0.29728168 0.040094815 -0.091926694 4292307002
-0.29796794 0.042195287 -0.09337303 4292241210
-0.29865873 0.044312097 -0.094829082 4291979066
-0.29967621 0.046574555 -0.096937425 4291323450
-0.30103022 0.048995927 -0.099718042 4289880891
-0.30240226 0.051452063 -0.10253577 4290731315
-0.30582857 0.054817714 -0.10945498 4291454268
-0.31008387 0.058613557 -0.11803195 4291521086
-0.31340683 0.06207376 -0.12475074 4291390274
-0.31420529 0.064443156 -0.12643047 4291458890
-0.31500947 0.066832088 -0.12812229 4291594331
-0.31826234 -0.04785933 -0.13394026 4290341700
-0.31753248 -0.045848519 -0.13256969 4290535223
-0.31680804 -0.043849565 -0.13120927 4290600501
-0.31608889 -0.041862369 -0.12985893 4290534964
-0.31499237 -0.039873946 -0.12775493 4290731826
-0.31203473 -0.037858453 -0.12193454 4291255089
-0.30879915 -0.035891052 -0.11555693 4291712304
-0.3060129 -0.033983849 -0.11007418 4290924846
-0.30502066 -0.032120533 -0.10817301 4288235559
-0.30403858 -0.030273648 -0.10629147 4285348127
-0.30340692 -0.028435672 -0.10510947 4284100379
-0.30311897 -0.026597179 -0.104614 4286266403
-0.30317149 -0.02474888 -0.10479898 4290074159
-0.30322403 -0.022898016 -0.10498425 4291451953
-0.30327666 -0.021044578 -0.10516976 4291714097
-0.30298969 -0.019211415 -0.10467599 4291911217
-0.30270374 -0.017381839 -0.10418417 4292042289
-0.30208239 -0.015584679 -0.10302098 4292107056
-0.30146524 -0.013796969 -0.10186583 4292369712
-0.30019131 -0.012087439 -0.099395283 4292501297
-0.29860967 -0.010434743 -0.09630765 4292763442
-0.29737332 -0.0087673441 -0.093910411 4292894001
-0.29615313 -0.0071191411 -0.091544613 4292697653
-0.29494879 -0.0054897508 -0.089209683 4292764211
-0.29437792 -0.0037858295 -0.088143237 4292631858
-0.29411933 -0.0020410784 -0.087702408 4292631598
-0.29386163 -0.00029943904 -0.087263189 4292567343
-0.29360485 0.0014391351 -0.086825624 4292566835
-0.29365575 0.0032321813 -0.087005101 4292697393
-0.29370677 0.0050277654 -0.087184824 4292762929
-0.29375783 0.0068258499 -0.087364793 4292763954
-0.29350191 0.0085602952 -0.08692883 4292567861
-0.29386017 0.010429639 -0.087725505 4292697906
-0.2942197 0.012307514 -0.088525027 4292829236
-0.29458043 0.014193972 -0.089327402 4292894772
-0.29463202 0.016010562 -0.089509219 4292961589
-0.29468369 0.017829735 -0.089691304 4292830005
-0.29442587 0.019567374 -0.089251675 4292830775
-0.29416898 0.021302009 -0.08881373 4292896824
-0.29391298 0.023033664 -0.088377476 4292895798
-0.29335201 0.02467064 -0.087327942 4292895284
-0.29340363 0.026488099 -0.087509856 4292829749
-0.29315031 0.028210908 -0.087078564 4292764214
-0.29320198 0.030030601 -0.087260686 4292633655
-0.29325375 0.031852853 -0.087443084 4292568889
-0.29361081 0.033783652 -0.08824008 4292503352
-0.29458478 0.035942603 -0.090279117 4292306230
-0.29525685 0.03801113 -0.091711283 4292044343
-0.29593334 0.040095642 -0.093152888 4292044602
-0.29661426 0.042196289 -0.094604075 4292044344
-0.29729968 0.044313245 -0.096065022 4291847226
-0.29830956 0.046575844 -0.098180301 4291585339
-0.29965362 0.048997369 -0.10097 4291060536
-0.30101556 0.051453684 -0.1037969 4291058484
-0.30475852 0.054966893 -0.11142564 4291127357
-0.30935451 0.058930025 -0.12077779 4291324738
-0.31194213 0.062075946 -0.1260829 4291521091
-0.31273443 0.064445496 -0.12776825 4291262538
-0.31353241 0.066834614 -0.12946573 4291464027
-0.31836665 -0.047976859 -0.13845582 4290275904
-0.31763008 -0.045950789 -0.13705967 4290535734
-0.31650805 -0.043916404 -0.13488615 4290535476
-0.31617326 -0.041934673 -0.13429847 4290666036
-0.31506735 -0.039931349 -0.13215618 4290665779
-0.31208661 -0.037900541 -0.12623268 4290993205
-0.30918959 -0.035924125 -0.12047567 4291385650
-0.30637288 -0.033999849 -0.11487833 4291450157
-0.30432403 -0.032123428 -0.110828 4290728237
-0.3029986 -0.030274276 -0.10823596 4288957226
-0.30236846 -0.028433068 -0.10704629 4287316258
-0.30174267 -0.0266017 -0.10586491 4288038692
-0.30179423 -0.024753258 -0.10605079 4290533681
-0.30184582 -0.022902273 -0.10623693 4291320625
-0.30189753 -0.021048691 -0.10642332 4291517489
-0.3016119 -0.019215379 -0.10592834 4291779632
-0.30132732 -0.017385647 -0.10543528 4291845936
-0.30070964 -0.015588331 -0.10426878 4291910703
-0.30009615 -0.013800492 -0.10311031 4292041775
-0.29883036 -0.012090794 -0.10063239 4292238641
-0.29758137 -0.010401133 -0.098187447 4292565809
-0.29603055 -0.008770369 -0.095131032 4292697137
-0.2951324 -0.0070803128 -0.093393922 4292698421
-0.29362154 -0.0054924516 -0.09041623 4292632113
-0.29305401 -0.0037883879 -0.089346752 4292565298
-0.29279667 -0.0020434959 -0.088904835 4292499758
-0.29254016 -0.0003017156 -0.088464543 4292370738
-0.29228455 0.0014369996 -0.08802592 4292304689
-0.29233456 0.0032301852 -0.088206246 4292304434
-0.29238462 0.005025886 -0.088386819 4292500014
-0.29243478 0.0068241321 -0.088567652 4292697136
-0.292485 0.0086248936 -0.088748738 4292436021
-0.29284129 0.010497459 -0.089550525 4292565809
-0.29319879 0.012378624 -0.090355143 4292762930
-0.2932494 0.014192801 -0.090537578 4292763442
-0.29330006 0.016009538 -0.090720266 4292830003
-0.29335079 0.01782885 -0.090903223 4292698932
-0.29309419 0.019566623 -0.090462521 4292633143
-0.29283845 0.021301398 -0.090023503 4292699449
-0.29258367 0.023033194 -0.089586183 4292895799
-0.29202601 0.024670336 -0.088533655 4292829749
-0.29207668 0.026487898 -0.088716432 4292764726
-0.29182455 0.028210877 -0.088284083 4292633911
-0.2918753 0.030030709 -0.088467084 4292568375
-0.29192612 0.031853121 -0.088650346 4292502841
-0.29258427 0.033890299 -0.090068437 4292437303
-0.29324675 0.035943154 -0.091495879 4292175414
-0.2939136 0.038011823 -0.09293282 4291781431
-0.29458475 0.040096473 -0.094379261 4291715895
-0.29526037 0.042197287 -0.095835313 4291651641
-0.29594043 0.044314384 -0.097301155 4291716155
-0.29694271 0.046577137 -0.099423379 4291650106
-0.29892388 0.049268149 -0.10353953 4291388213
-0.29995602 0.051594697 -0.1057249 4290993456
-0.3040255 0.055264991 -0.11409748 4290930233
-0.30861989 0.059248641 -0.12354284 4291388735
-0.3104772 0.062078133 -0.12741524 4291259973
-0.31126332 0.064447865 -0.12910624 4291328334
-0.31205508 0.066837147 -0.13080941 4291464798
-0.31727788 -0.048011448 -0.14060847 4290013503
-0.31615055 -0.045957167 -0.13840425 4290339639
-0.31581345 -0.043963417 -0.13780758 4290405176
-0.31586742 -0.041991111 -0.13800684 4290601013
-0.31437057 -0.039963301 -0.13504842 4290862130
-0.31213903 -0.037943259 -0.13059261 4290861618
-0.3084898 -0.035940792 -0.12324718 4291057970
-0.30531886 -0.034007248 -0.11687322 4291515949
-0.30293155 -0.032128423 -0.11209358 4291777835
-0.3019549 -0.030274937 -0.11018734 4291188527
-0.30098826 -0.028437747 -0.10830075 4290007084
-0.30070198 -0.026595877 -0.10780079 4289941289
-0.30041674 -0.024757659 -0.10730278 4290992689
-0.3004674 -0.022906499 -0.10748981 4291320368
-0.30018321 -0.021072501 -0.10699364 4291450671
-0.3002339 -0.019219335 -0.10718087 4291582254
-0.29995072 -0.017389484 -0.10668658 4291648560
-0.29900593 -0.015620723 -0.10484151 4291713838
-0.29839823 -0.01383559 -0.10368397 4291910704
-0.2974692 -0.012094149 -0.10186969 4292107056
-0.29590809 -0.010441112 -0.098763421 4292172337
-0.29468757 -0.0087733921 -0.096351832 4292368945
-0.29379505 -0.0070831818 -0.094609611 4292501297
-0.29291126 -0.0054068598 -0.092884593 4292434993
-0.29172993 -0.003790945 -0.09055046 4292368946
-0.29147378 -0.0020459343 -0.090107463 4292304690
-0.29152286 -0.00025187506 -0.090288714 4292108083
-0.29126754 0.0014896903 -0.089847319 4292238637
-0.29131672 0.0032859237 -0.090028778 4292107313
-0.29136595 0.0050846431 -0.090210505 4292238126
-0.29141524 0.0068859146 -0.090392485 4292370481
-0.2914646 0.0086896801 -0.090574726 4292305204
-0.29151404 0.010496012 -0.090757221 4292303149
-0.29186851 0.012377284 -0.091564648 4292435503
-0.29191816 0.01419163 -0.091747954 4292631856
-0.2919679 0.016008507 -0.0919315 4292698676
-0.2920177 0.017827958 -0.09211532 4292633910
-0.29176226 0.019565873 -0.091673546 4292567606
-0.29150775 0.021300811 -0.091233447 4292568119
-0.29125416 0.023032749 -0.09079507 4292699191
-0.29100141 0.024761708 -0.090358309 4292830006
-0.29074955 0.026487734 -0.089923188 4292633142
-0.29049858 0.028210817 -0.089489795 4292502327
-0.29084924 0.030130917 -0.090291269 4292567607
-0.29059827 0.031853363 -0.089857787 4292502070
-0.29125127 0.033890676 -0.091280617 4292306229
-0.2919085 0.035943676 -0.092712834 4292043828
-0.29257011 0.038012512 -0.094154559 4291584820
-0.29292786 0.039980017 -0.09497264 4291322679
-0.29390624 0.042198263 -0.097066753 4291388985
-0.294581 0.044315528 -0.098537467 4291453751
-0.29557562 0.046578422 -0.10066664 4291585591
-0.29851407 0.049676903 -0.10679461 4291519539
-0.29889274 0.051736135 -0.10765946 4290863154
-0.30362922 0.055715024 -0.11749113 4291059769
-0.30823752 0.059729762 -0.12706321 4291455042
-0.30901203 0.06208032 -0.12874782 4291456839
-0.30979198 0.064450227 -0.13044445 4291458637
-0.31697708 -0.048102759 -0.14439715 4289947970
-0.31584421 -0.046036489 -0.14216082 4290405431
-0.31550479 -0.044031493 -0.14155494 4290536246
-0.31477684 -0.042014092 -0.14014988 4290667317
-0.31366849 -0.039995484 -0.13796192 4290862642
-0.31143549 -0.037967674 -0.13345955 4290861104
-0.30814922 -0.035963282 -0.12678821 4290796082
-0.3046129 -0.034016892 -0.11959952 4290927151
-0.3022249 -0.032131378 -0.11477154 4291516460
-0.3009074 -0.030275594 -0.11214557 4291516206
-0.29994351 -0.028435139 -0.1102467 4290924588
-0.29932293 -0.026600404 -0.10905419 4290793259
-0.29903907 -0.024762031 -0.10855497 4291057967
-0.29875624 -0.022927321 -0.10805763 4291320112
-0.29847443 -0.02109623 -0.10756223 4291451697
-0.29852411 -0.01924604 -0.10775002 4291517232
-0.29791388 -0.017444769 -0.10657725 4291451954
-0.29730776 -0.015652979 -0.10541258 4291648562
-0.29670575 -0.013870596 -0.10425588 4291844913
-0.29578575 -0.0121317 -0.10244266 4291844655
-0.29424012 -0.010480958 -0.099337652 4291844914
-0.29334441 -0.0087764403 -0.097572818 4291975476
-0.29245749 -0.0070860488 -0.095825508 4291976754
-0.29157931 -0.005409576 -0.094095424 4291909682
-0.29070967 -0.0037468418 -0.092382334 4292041008
-0.29015064 -0.0020483492 -0.091310285 4292108340
-0.29019883 -0.00025415065 -0.091492385 4291976497
-0.29024708 0.0015425783 -0.091674753 4292173358
-0.28999296 0.0032838988 -0.09123224 4292107568
-0.29004127 0.0050827572 -0.091414817 4292042033
-0.29008964 0.0068841684 -0.091597654 4292042804
-0.29044074 0.008754693 -0.092406787 4292107569
-0.29048932 0.010564074 -0.092590436 4291712558
-0.29053798 0.012375984 -0.092774332 4291779118
-0.2902838 0.014115123 -0.092331596 4292108082
-0.29033253 0.015929237 -0.092515737 4292305718
-0.29038131 0.017745912 -0.092700116 4292305974
-0.29012799 0.019481311 -0.092258982 4292305717
-0.2898756 0.021213753 -0.091819569 4292239667
-0.28992444 0.023032282 -0.09200415 4292370993
-0.28967288 0.024761397 -0.091566324 4292698932
-0.28942218 0.026487542 -0.09113016 4292764472
-0.28917241 0.028210789 -0.090695687 4292567864
-0.28952003 0.030131027 -0.091499962 4292502071
-0.28956905 0.031956621 -0.091685265 4292633398
-0.28991804 0.033891093 -0.092492998 4292372023
-0.29057005 0.035944227 -0.093929969 4291847478
-0.29153126 0.038127128 -0.096009269 4291453749
-0.29188699 0.040098164 -0.096832588 4291191096
-0.29286095 0.042320717 -0.098940037 4291191097
-0.2935324 0.044441957 -0.10042008 4291454263
-0.29452252 0.046709314 -0.10256285 4291519543
-0.29809996 0.050089765 -0.11008242 4291454263
-0.29880702 0.052301861 -0.11164005 4291191352
-0.30322865 0.056169689 -0.12091972 4291387449
-0.30677822 0.059731796 -0.12839043 4291390274
-0.30754665 0.06208251 -0.1300806 4291326024
-0.3083204 0.064452574 -0.13178287 4291327823
-0.31548172 -0.048109334 -0.1457561 4289883462
-0.3147473 -0.046067402 -0.14432555 4290405176
-0.3144083 -0.044058509 -0.14371556 4290535989
-0.31368196 -0.042037182 -0.1423009 4290535476
-0.31257659 -0.040014617 -0.14009817 4290600501
-0.31072664 -0.037992291 -0.13634738 4290731059
-0.30743903 -0.035980232 -0.12960711 4290731313
-0.30354989 -0.034024354 -0.12161345 4290469168
-0.3011696 -0.032135386 -0.11675378 4290599985
-0.2998561 -0.030276256 -0.11411062 4290729775
-0.29856053 -0.028439824 -0.11150367 4290662700
-0.29794365 -0.026604928 -0.11030781 4290925613
-0.29766119 -0.02476643 -0.10980734 4291057968
-0.29737973 -0.02293157 -0.10930879 4291124017
-0.29709929 -0.021100327 -0.10881216 4291320880
-0.29681987 -0.019272652 -0.10831752 4291452208
-0.29621539 -0.017474165 -0.10714562 4291255346
-0.29561505 -0.015685152 -0.10598189 4291255345
-0.29501873 -0.013905486 -0.10482615 4291386417
-0.29410768 -0.012169152 -0.10301394 4291321648
-0.29289103 -0.010484133 -0.10056399 4291255090
-0.29200101 -0.0087794606 -0.098794006 4291714611
-0.29111975 -0.0070889154 -0.097041577 4291713841
-0.29055288 -0.0053679571 -0.095944285 4291712304
-0.2896859 -0.0037025732 -0.09422034 4291779889
-0.28943035 -0.0019518102 -0.093771651 4291778608
-0.28947777 -0.00015167694 -0.093955226 4291779121
-0.28922307 0.0015956102 -0.093508206 4291713838
-0.28896931 0.0033397824 -0.093062945 4291779374
-0.28901675 0.0051417039 -0.093246691 4291780400
-0.28936565 0.0070100189 -0.094060332 4291779377
-0.28941333 0.0088198949 -0.09424486 4291976500
-0.28915954 0.010562605 -0.093799442 4291581491
-0.28920725 0.012374655 -0.093984231 4291516464
-0.28895429 0.014113957 -0.0935404 4291583024
-0.28870222 0.015850201 -0.09309826 4291780145
-0.28874996 0.017664121 -0.093283229 4291780917
-0.28849876 0.019397024 -0.092842788 4291715639
-0.28824845 0.021126963 -0.092403956 4291715381
-0.28829625 0.022942724 -0.092589125 4291911474
-0.28834414 0.024761073 -0.092774533 4292173363
-0.2883921 0.026581982 -0.092960201 4292174136
-0.28814259 0.028307963 -0.092522942 4292175161
-0.28848821 0.030231541 -0.09333235 4292306488
-0.28853637 0.032060213 -0.093518816 4292175932
-0.28918296 0.034105022 -0.094959691 4291652675
-0.28953212 0.036055021 -0.095777713 4291193669
-0.29018518 0.038127825 -0.097233377 4291062084
-0.2905378 0.040098999 -0.098059542 4290863679
-0.29150423 0.042321693 -0.10017385 4290994486
-0.29217029 0.044443078 -0.10165881 4291191348
-0.29346582 0.046840638 -0.10446553 4291388215
-0.29735458 0.050367773 -0.11271726 4291258169
-0.2977325 0.052445706 -0.11360112 4291191610
-0.30247968 0.05647599 -0.12366124 4291191611
-0.30496621 0.059573542 -0.12897728 4291128131
-0.306081 0.062084701 -0.13141361 4290998600
-0.30649093 0.064285323 -0.13236982 4291066706
-0.31437889 -0.048144415 -0.14793877 4289687884
-0.31325617 -0.04607385 -0.14568065 4290339898
-0.3129189 -0.044064786 -0.14506909 4290404920
-0.312197 -0.04204328 -0.14365044 4290339124
-0.31109872 -0.040020555 -0.14144129 4290273332
-0.30963612 -0.038007539 -0.13846643 4290535220
-0.30708936 -0.036003128 -0.13321424 4290731314
-0.30318552 -0.034036413 -0.12511003 4290402608
-0.29976928 -0.0321404 -0.11802648 4289943600
-0.29846439 -0.030281119 -0.1153755 4289942832
-0.2975094 -0.02843721 -0.11345869 4290335791
-0.29656419 -0.026609479 -0.1115616 4290730032
-0.2959553 -0.024784258 -0.11037076 4290926896
-0.29567623 -0.022952313 -0.10987297 4290992689
-0.29539818 -0.021123964 -0.10937715 4290993457
-0.29512113 -0.019299204 -0.10888323 4290992943
-0.2945224 -0.017503493 -0.10771235 4290927408
-0.29392773 -0.015717218 -0.10654946 4290993458
-0.29333708 -0.013940256 -0.10539465 4290992688
-0.29243493 -0.01220648 -0.10358351 4290992946
-0.29154176 -0.010487311 -0.10179052 4291058738
-0.2906574 -0.0087824799 -0.10001538 4291254835
-0.29008833 -0.0070499415 -0.098903626 4291124272
-0.28952295 -0.0053261798 -0.097799294 4291189039
-0.28865862 -0.0036581929 -0.096064411 4291321140
-0.28870517 -0.0018546111 -0.096249163 4291387186
-0.28875181 -4.8513757e-05 -0.096434176 4291321139
-0.28849658 0.0017043692 -0.095982641 4291320881
-0.28824222 0.0034541527 -0.095532753 4291386927
-0.28828889 0.0052620014 -0.095717944 4291386161
-0.28863683 0.0071367151 -0.09653911 4291452721
-0.28838244 0.0088853333 -0.096089125 4291648819
-0.28812894 0.010630862 -0.095640823 4291713588
-0.28787634 0.01237335 -0.095194288 4291778606
-0.28762457 0.014112771 -0.094749391 4291648306
-0.28737369 0.015849179 -0.094306186 4291452212
-0.28742051 0.017663216 -0.094492018 4291189814
-0.2871705 0.019396281 -0.094050504 4290927413
-0.28692135 0.021126362 -0.093610622 4290861875
-0.28696823 0.02294226 -0.093796648 4291058481
-0.2870152 0.024760742 -0.09398292 4291386672
-0.2870622 0.02658179 -0.094169475 4291583795
-0.28710929 0.02840543 -0.094356284 4291650362
-0.28745288 0.0303324 -0.095170781 4291717955
-0.2877976 0.032268144 -0.095988132 4291196238
-0.28784505 0.034105416 -0.096176334 4290544476
-0.28819111 0.036055554 -0.096997172 4290546533
-0.28883889 0.038128514 -0.098457657 4290807909
-0.28918839 0.040099833 -0.09928669 4290669907
-0.28984269 0.042201217 -0.10076217 4290928949
-0.29080799 0.044444229 -0.10289772 4291125557
-0.29209363 0.046841934 -0.10571345 4291256374
-0.29660401 0.050647676 -0.11536992 4291126329
-0.29698095 0.05273319 -0.11626214 4291061307
-0.30104098 0.056477819 -0.1249697 4290864187
-0.30350903 0.059575576 -0.13030259 4290997314
-0.30426258 0.061921977 -0.13199839 4290933321
-0.30466756 0.064118654 -0.13295496 4290806101
-0.31215206 -0.046104889 -0.14785628 4290078012
-0.31142926 -0.044071063 -0.14642288 4290142778
-0.31071183 -0.042049408 -0.14500017 4290142519
-0.30999967 -0.040039767 -0.14358819 4290076726
-0.3081677 -0.038013246 -0.13980097 4290404405
-0.30636859 -0.036020372 -0.13608189 4290731315
-0.30246398 -0.034046259 -0.12789461 4290402609
-0.29870752 -0.032144427 -0.12001818 4289811759
-0.2974067 -0.030281788 -0.11734992 4289680175
-0.29645455 -0.028434588 -0.11542062 4290009136
-0.29518452 -0.026614001 -0.1128156 4290403122
-0.2945793 -0.024788622 -0.11162142 4290599473
-0.2943016 -0.02295655 -0.1111224 4290730801
-0.29370254 -0.021147527 -0.10994044 4290796338
-0.29310757 -0.019348061 -0.10876662 4290730803
-0.29251656 -0.017558055 -0.10760085 4290665266
-0.29192963 -0.015777364 -0.10644313 4290599474
-0.29134661 -0.014005944 -0.10529335 4290599473
-0.29076749 -0.012243683 -0.10415138 4290796336
-0.29019228 -0.010490483 -0.10301723 4290861873
-0.28962088 -0.0087462338 -0.10189077 4290993203
-0.28905326 -0.0070108688 -0.10077187 4290861875
-0.28879383 -0.0052395058 -0.10030867 4290927922
-0.28792933 -0.0035663559 -0.098556787 4290927667
-0.28797513 -0.0017568098 -0.098742999 4291189555
-0.28802097 5.5288845e-05 -0.098929487 4291123760
-0.28776515 0.0018138551 -0.098473251 4291124532
-0.28751019 0.0035692425 -0.098018728 4291123504
-0.28725618 0.0053214948 -0.097566016 4291190323
-0.28760204 0.0071994723 -0.098392323 4291321396
-0.28764805 0.0090184202 -0.098579511 4291517490
-0.2870948 0.010699363 -0.097488396 4291516977
-0.28684253 0.012444662 -0.097038977 4291778350
-0.28659111 0.014186927 -0.096591316 4291583281
-0.28604493 0.015848164 -0.095514297 4291255858
-0.28609085 0.017662333 -0.095700987 4290862133
-0.28584203 0.01939554 -0.095258407 4290664756
-0.28559408 0.021125752 -0.094817467 4290467377
-0.28564003 0.022941792 -0.09500435 4290467889
-0.28568605 0.024760412 -0.095191501 4290731318
-0.28573212 0.02658163 -0.095378928 4290864957
-0.28577828 0.028405402 -0.095566601 4290540360
-0.28611878 0.030332517 -0.096383922 4290148692
-0.28646043 0.032268394 -0.097204074 4289823327
-0.28650689 0.03410583 -0.09739317 4289892715
-0.28684986 0.036056105 -0.098216861 4290419060
-0.28719401 0.038015258 -0.099043459 4290877040
-0.2875393 0.039983381 -0.099872947 4290671961
-0.28848773 0.042202227 -0.1019944 4290994229
-0.2897509 0.044571087 -0.10479114 4290928950
-0.2913413 0.047104571 -0.10829017 4291125047
-0.29584819 0.050929438 -0.11804068 4291126072
-0.29622412 0.053022597 -0.11894128 4290995772
-0.299602 0.056479651 -0.1262784 4290733116
-0.30205157 0.059577569 -0.13162811 4290866243
-0.30279902 0.061924171 -0.1333295 4290933836
-0.30320045 0.064121 -0.13428932 4290742363
-0.31065771 -0.046111315 -0.14921428 4289750591
-0.30993941 -0.044077341 -0.14777681 4290011963
-0.30922639 -0.042055503 -0.14635012 4290011704
-0.30851865 -0.040045712 -0.14493415 4290011448
-0.30669907 -0.038018979 -0.14113569 4290272821
-0.30527657 -0.036031812 -0.13818651 4290534707
-0.3017371 -0.034056176 -0.13069902 4290337587
-0.29764184 -0.032148469 -0.12201691 4289877552
-0.29634514 -0.030282458 -0.11933127 4289615406
-0.29506621 -0.028439317 -0.11668246 4289944113
-0.29380462 -0.026618548 -0.1140698 4290206514
-0.29320312 -0.024793008 -0.11287226 4290337586
-0.29260573 -0.022977209 -0.11168302 4290468657
-0.29201239 -0.021171004 -0.11050197 4290403893
-0.29142311 -0.019374352 -0.10932914 4290340415
-0.29083779 -0.017587066 -0.10816436 4290407749
-0.29025638 -0.015809115 -0.10700754 4290275906
-0.28967896 -0.014040376 -0.10585865 4290274878
-0.28941429 -0.012247011 -0.10538147 4290273593
-0.28884256 -0.010493658 -0.10424414 4290337846
-0.28858069 -0.0087098945 -0.10377246 4290534195
-0.28831977 -0.0069294083 -0.10330266 4290534193
-0.28775555 -0.0051973034 -0.10218027 4290598960
-0.28749737 -0.0034262156 -0.1017159 4290599475
-0.28724006 -0.0016583659 -0.10125323 4290729777
-0.28728515 0.00015977112 -0.10144118 4290730035
-0.28702873 0.0019240282 -0.10098024 4290926643
-0.28677323 0.0036850758 -0.1005211 4290991918
-0.28711903 0.0055671362 -0.10135686 4290861616
-0.28686354 0.007327375 -0.10089764 4290861873
-0.28690875 0.0091523612 -0.1010863 4291057457
-0.28635514 0.010838457 -0.09998437 4291386162
-0.28580517 0.012516226 -0.098889858 4291713327
-0.28525883 0.014185742 -0.097802624 4291451694
-0.28500947 0.015925104 -0.097355545 4291058993
-0.28476095 0.017661452 -0.096910171 4290665268
-0.28451335 0.019394791 -0.096466504 4290467890
-0.28455839 0.021211311 -0.096654296 4290336818
-0.28460345 0.023030413 -0.096842356 4290077244
-0.28464863 0.024852112 -0.097030669 4289752904
-0.28469384 0.026676347 -0.097219266 4289099343
-0.28473911 0.028503204 -0.097408108 4288510030
-0.28507751 0.030433698 -0.098230541 4288117327
-0.28512302 0.032268647 -0.098420225 4288448090
-0.28516856 0.034106221 -0.098610185 4289303657
-0.28521416 0.035946395 -0.098800436 4290419830
-0.28584948 0.038015958 -0.10026617 4290876012
-0.28648892 0.040101506 -0.10174156 4290801486
-0.28743279 0.042324658 -0.10387644 4290928694
-0.28899539 0.044824854 -0.10735147 4290863416
-0.29089522 0.047501132 -0.11155812 4290929209
-0.29541337 0.051354907 -0.12143626 4290995000
-0.29578945 0.053459574 -0.12234811 4290864444
-0.2988373 0.056788068 -0.12904835 4290667837
-0.30025011 0.059419867 -0.13220894 4290735429
-0.30098897 0.061761979 -0.13391031 4290869071
-0.30878145 -0.046093125 -0.14974715 4289293126
-0.3080703 -0.044062756 -0.14831129 4289946941
-0.30774075 -0.042061593 -0.14770028 4289946425
-0.30666375 -0.040038299 -0.14547181 4289945399
-0.3052302 -0.038024716 -0.14247063 4290076468
-0.30381724 -0.036037382 -0.13951281 4290272819
-0.30135792 -0.034068547 -0.13428795 4290207028
-0.29657227 -0.032152519 -0.12402277 4289812785
-0.29527974 -0.030283131 -0.12131958 4289681199
-0.29400492 -0.028436687 -0.11865364 4289878577
-0.29307148 -0.026602313 -0.11672632 4290010163
-0.29214755 -0.024783986 -0.11481877 4290206258
-0.291233 -0.022981437 -0.11293074 4290336819
-0.2903277 -0.021194434 -0.1110619 4290339902
-0.28974402 -0.01940052 -0.10988998 4290280787
-0.28916433 -0.017616004 -0.10872614 4290086753
-0.28858852 -0.015840756 -0.10757028 4289823325
-0.28801659 -0.014074694 -0.10642228 4289295959
-0.28806084 -0.012250359 -0.10661174 4289163087
-0.28749263 -0.010496857 -0.10547123 4289292614
-0.28753692 -0.0086734081 -0.10566057 4289619517
-0.2872763 -0.0068899421 -0.10518773 4290076469
-0.28701666 -0.0051097833 -0.10471673 4290205748
-0.28645578 -0.0033809426 -0.10359086 4290336305
-0.28650001 -0.0015592529 -0.10378003 4290402351
-0.28654429 0.00026496727 -0.10396947 4290402609
-0.28628734 0.0020349196 -0.10350384 4290598706
-0.28603128 0.0038016632 -0.10303991 4290597935
-0.28637606 0.0056902012 -0.10388343 4290466864
-0.28611997 0.0074561066 -0.10341942 4290336816
-0.28556609 0.0091507724 -0.102307 4290467631
-0.28501591 0.01083698 -0.10120196 4290926640
-0.28446931 0.012514899 -0.1001044 4291189040
-0.28392634 0.014184579 -0.099014141 4290992687
-0.28367817 0.015924081 -0.098565973 4290599473
-0.28343087 0.017660549 -0.098119512 4290337075
-0.28347498 0.019477565 -0.098308206 4290271540
-0.28351912 0.021297153 -0.098497167 4290144063
-0.28356335 0.023119312 -0.098686405 4289558351
-0.28360763 0.024944073 -0.098875903 4288445008
-0.28365198 0.026771372 -0.099065647 4287065415
-0.28369638 0.028601291 -0.099255696 4285947456
-0.28374088 0.030433808 -0.099445999 4286014269
-0.2837854 0.032268897 -0.09963657 4287265865
-0.28383002 0.034106616 -0.099827409 4288909665
-0.28387469 0.035946924 -0.10001852 4290288757
-0.28479877 0.038130581 -0.10213167 4290742885
-0.2854349 0.040220022 -0.10361642 4290995263
-0.28637421 0.042447504 -0.10576478 4290928951
-0.28854069 0.045208082 -0.11059798 4290863417
-0.29044443 0.047901638 -0.11485879 4290863930
-0.29497391 0.051784705 -0.12486663 4290929721
-0.29535013 0.053900994 -0.1257899 4290798908
-0.29806712 0.057098623 -0.13183768 4290471743
-0.29913601 0.059581615 -0.13427979 4290539847
-0.2995275 0.061764173 -0.13523953 4290674259
-0.30620784 -0.044048261 -0.14884402 4289619520
-0.30550903 -0.042033628 -0.14742053 4289946170
-0.30481538 -0.040030941 -0.14600772 4289879862
-0.3033967 -0.03802089 -0.14300901 4289945908
-0.3019985 -0.036036991 -0.14005359 4290076212
-0.29956502 -0.03407152 -0.13483216 4290010676
-0.2958349 -0.032155551 -0.12677121 4289878578
-0.29421046 -0.030283801 -0.12331498 4289746735
-0.29293978 -0.028434049 -0.12063167 4289747249
-0.29200923 -0.026596451 -0.11869185 4289813043
-0.29076859 -0.02478838 -0.11607211 4290009139
-0.28986007 -0.022985663 -0.11417862 4290205749
-0.2889607 -0.021198492 -0.11230443 4290209602
-0.28838062 -0.019404452 -0.11112922 4290020956
-0.28780451 -0.017619777 -0.10996216 4289762158
-0.28723228 -0.015844377 -0.10880306 4289433195
-0.28666389 -0.014078188 -0.10765187 4288447329
-0.28640276 -0.012287426 -0.10717429 4287986515
-0.28614253 -0.010500025 -0.1066985 4287722569
-0.28618583 -0.0086764665 -0.10688873 4287786820
-0.28592652 -0.0068928311 -0.10641472 4288639044
-0.28596988 -0.005067158 -0.10660516 4289423171
-0.2857115 -0.0032872886 -0.10613299 4289814072
-0.28575492 -0.0014595158 -0.10632367 4290009397
-0.2857984 0.00037082445 -0.1065146 4290139697
-0.28554085 0.0021465402 -0.10604408 4290206002
-0.28588551 0.0040392224 -0.10689728 4290336304
-0.28532773 0.0057510785 -0.10576649 4290270256
-0.28477368 0.0074543762 -0.1046434 4290205231
-0.28451973 0.0092172604 -0.10418006 4290139694
-0.2839711 0.010906154 -0.1030681 4290401839
-0.28342608 0.012586673 -0.10196359 4290598960
-0.2828846 0.014258946 -0.10086641 4290533425
-0.28263682 0.016001264 -0.10041547 4290271538
-0.28210056 0.01765967 -0.099329069 4290206005
-0.28214374 0.019476825 -0.099518619 4290209087
-0.28218696 0.021296553 -0.099708445 4290083924
-0.28223026 0.02311885 -0.099898547 4289037914
-0.28227359 0.024943745 -0.10008891 4287396426
-0.28231701 0.026771212 -0.10027955 4285750584
-0.28236046 0.028601242 -0.10047045 4284170801
-0.28240401 0.030433904 -0.10066163 4284501810
-0.28244758 0.032269157 -0.1008531 4286476349
-0.28249124 0.034107007 -0.10104481 4288646488
-0.28282493 0.036057726 -0.101877 4290089837
-0.28374448 0.038245562 -0.10400342 4290673241
-0.28467304 0.040457342 -0.10615081 4291059767
-0.28621107 0.042939883 -0.10964596 4290863672
-0.28838903 0.04572456 -0.11455699 4290928439
-0.29030299 0.048441447 -0.11888681 4290928953
-0.29452968 0.052218948 -0.12833235 4290995513
-0.29523659 0.054496083 -0.12999818 4290733884
-0.29695389 0.057255626 -0.13389994 4290406208
-0.29767787 0.059583627 -0.13560593 4290474827
-0.30435196 -0.044033848 -0.14937504 4289161799
-0.30402833 -0.042039726 -0.14876617 4289815354
-0.30333909 -0.040036861 -0.14734939 4289814583
-0.30193007 -0.038026612 -0.14434193 4289749302
-0.30089796 -0.036048453 -0.14216596 4289879092
-0.29882202 -0.034081593 -0.13768177 4289944627
-0.29542938 -0.03215763 -0.13028447 4289943858
-0.29379901 -0.030275991 -0.12678082 4289681200
-0.29219669 -0.028424049 -0.12333754 4289550641
-0.29126582 -0.026580082 -0.12137813 4289681714
-0.28970671 -0.024779331 -0.11802766 4289943602
-0.28880104 -0.022973482 -0.11612201 4290074932
-0.28759348 -0.021202579 -0.11354712 4290011710
-0.28670904 -0.019430531 -0.11168657 4289755476
-0.28613847 -0.017648615 -0.1105204 4289629547
-0.28557175 -0.015875908 -0.10936226 4289105771
-0.28500882 -0.014112379 -0.10821203 4287857755
-0.2847499 -0.012324367 -0.10773514 4286870852
-0.28479221 -0.010503196 -0.10792597 4285752381
-0.28483459 -0.0086794943 -0.10811707 4285487927
-0.284877 -0.0068532373 -0.10830844 4287000642
-0.2849195 -0.0050244196 -0.10850009 4288246603
-0.28466144 -0.0032415632 -0.10802483 4288966733
-0.28470397 -0.0014106455 -0.1082167 4289553224
-0.28474659 0.00042284673 -0.10840882 4289812533
-0.28448945 0.0022015283 -0.10793536 4289878321
-0.28483197 0.0040975488 -0.10879388 4290074417
-0.28427583 0.0058121607 -0.10765596 4290139696
-0.28372332 0.0075181727 -0.10652576 4290139695
-0.28346974 0.0092839655 -0.10605946 4290008622
-0.28292269 0.010975531 -0.10494046 4290073647
-0.28237918 0.012658678 -0.10382894 4290271024
-0.28183931 0.014333557 -0.1027249 4290271025
-0.28130296 0.016000221 -0.10162822 4290205747
-0.28077009 0.01765877 -0.10053878 4290207291
-0.28081229 0.019476064 -0.10072922 4290147922
-0.28085458 0.021295955 -0.10091992 4290088550
-0.28089693 0.023118392 -0.10111089 4289039452
-0.28093934 0.024943424 -0.10130214 4287199556
-0.28098178 0.026771026 -0.10149366 4285160244
-0.28102434 0.028601222 -0.10168542 4283449133
-0.28106692 0.030434018 -0.10187749 4283910961
-0.28139725 0.03237376 -0.10271134 4286476606
-0.28144002 0.034214694 -0.10290425 4288513362
-0.2817716 0.036168866 -0.10374165 4289953626
-0.28297907 0.038475979 -0.10653427 4290733125
-0.2842024 0.040815812 -0.10936363 4290928695
-0.28574321 0.043313693 -0.11290326 4290798135
-0.28823516 0.046247941 -0.11856888 4290863414
-0.2901594 0.048988517 -0.12296918 4290863161
-0.29342362 0.052365672 -0.13036574 4290668604
-0.2944572 0.054797538 -0.1327806 4290537533
-0.29583654 0.057413176 -0.13596959 4290406465
-0.29655689 0.059745915 -0.13768664 4290476111
-0.30218196 -0.042028837 -0.14929652 4289488702
-0.30149961 -0.040029518 -0.14788133 4289814840
-0.3004632 -0.038032334 -0.14567505 4289683254
-0.2997933 -0.036059987 -0.14428617 4289813811
-0.29807353 -0.034091763 -0.14055194 4289944370
-0.2946811 -0.032160759 -0.13307939 4289878323
-0.29305059 -0.030272415 -0.12954016 4289550131
-0.29177505 -0.028406527 -0.12679262 4289419827
-0.29084057 -0.026553016 -0.12480627 4289616435
-0.28927615 -0.024743158 -0.12141043 4289812529
-0.28773823 -0.022961285 -0.11807218 4290009137
-0.28653482 -0.021187328 -0.11548075 4289944119
-0.28565323 -0.019412285 -0.11360829 4289750854
-0.2847805 -0.017652351 -0.11175475 4289559900
-0.28421733 -0.015879517 -0.1105934 4288841826
-0.28365794 -0.014115836 -0.10943996 4287397455
-0.2834003 -0.012327702 -0.10896192 4286081334
-0.28344166 -0.010506388 -0.10915363 4284173361
-0.28348312 -0.0086825434 -0.10934561 4283907107
-0.2835246 -0.0068561463 -0.10953785 4285816883
-0.28356615 -0.0050271894 -0.10973036 4287066949
-0.28360775 -0.00319568 -0.10992315 4288315482
-0.28364941 -0.0013616103 -0.1101162 4289230940
-0.28369117 0.00047504148 -0.11030951 4289553990
-0.28373295 0.002314246 -0.11050311 4289746997
-0.28377479 0.0041560698 -0.11069696 4289746225
-0.28322023 0.0058734384 -0.10955184 4289942831
-0.28266931 0.0075821797 -0.1084144 4290008624
-0.28212208 0.0092823477 -0.1072847 4290008878
-0.28157848 0.010974056 -0.10616259 4290074158
-0.2810384 0.012657374 -0.10504797 4290139952
-0.2805019 0.014332403 -0.10394087 4290139695
-0.27996892 0.015999209 -0.10284117 4290271026
-0.27943936 0.017657865 -0.10174872 4290274883
-0.27948067 0.019475328 -0.10194001 4289954658
-0.279522 0.021295328 -0.10213159 4289828208
-0.2795634 0.023117933 -0.10232343 4289171295
-0.27960488 0.024943098 -0.10251553 4287462728
-0.2796464 0.026770838 -0.10270793 4285490746
-0.27968797 0.028601175 -0.10290059 4283912242
-0.27972963 0.030434109 -0.10309351 4284635189
-0.28034332 0.03247869 -0.10457576 4287068229
-0.2803852 0.034322735 -0.10476987 4288969041
-0.28100306 0.036391675 -0.1062628 4290145098
-0.28279591 0.038940579 -0.11040645 4290928692
-0.28402507 0.041298948 -0.11328065 4290863928
-0.2855736 0.043817505 -0.11687697 4290797879
-0.2880789 0.046778306 -0.12263468 4290732345
-0.29001361 0.04954299 -0.12710701 4290601014
-0.29231358 0.052512903 -0.1324064 4290339901
-0.29334217 0.054949876 -0.13483687 4290210623
-0.2943815 0.057415031 -0.13729291 4290342212
-0.29509574 0.059747957 -0.13901551 4290609236
-0.29998189 -0.042001165 -0.14901315 4289098058
-0.29966661 -0.040022168 -0.14841153 4289552699
-0.29899609 -0.038038082 -0.1470084 4289682997
-0.29833046 -0.03606553 -0.14561567 4289944624
-0.29731944 -0.034102004 -0.14344279 4289944625
-0.29426545 -0.032162875 -0.13665727 4289944627
-0.29296252 -0.030260155 -0.13382211 4289681971
-0.292339 -0.02836608 -0.13252012 4289420086
-0.29073632 -0.026514942 -0.12900554 4289550901
-0.28884104 -0.024706615 -0.12482808 4289747250
-0.28729802 -0.022915844 -0.12144478 4289747249
-0.28547242 -0.02117205 -0.11742112 4289747252
-0.28428924 -0.019416209 -0.11484811 4289748537
-0.28372389 -0.017631065 -0.11367132 4289555269
-0.28286272 -0.015883129 -0.11182471 4288773203
-0.28230682 -0.014119292 -0.11066811 4287265096
-0.28205049 -0.012331013 -0.11018889 4286016311
-0.2820909 -0.010509581 -0.11038149 4283910962
-0.28213143 -0.0086855683 -0.11057433 4283380770
-0.28217196 -0.0068590543 -0.11076745 4285158957
-0.28221256 -0.0050299577 -0.11096084 4286542399
-0.28225324 -0.0031983091 -0.11115449 4288186455
-0.28229398 -0.0013640927 -0.11134842 4289103718
-0.28233477 0.00047269854 -0.1115426 4289428574
-0.28237557 0.00231205 -0.1117371 4289618501
-0.28241649 0.0041539837 -0.11193183 4289549620
-0.28186542 0.0058715306 -0.11078354 4289745711
-0.28131801 0.0075804139 -0.10964295 4290008111
-0.28077424 0.0092807319 -0.10851011 4290008623
-0.28023404 0.010972582 -0.10738492 4290074927
-0.27969739 0.01265605 -0.10626722 4290074672
-0.27916428 0.014331213 -0.10515705 4290205230
-0.27863464 0.015998162 -0.1040543 4290271026
-0.27810845 0.017656989 -0.10295883 4290211657
-0.2781488 0.019474562 -0.10315099 4289824612
-0.27818921 0.021294732 -0.10334344 4289565039
-0.27822968 0.023117468 -0.10353615 4289041000
-0.27827021 0.02494278 -0.10372914 4287858264
-0.27831078 0.026770661 -0.1039224 4286805576
-0.27835143 0.028601158 -0.10411593 4286344257
-0.27895969 0.030637352 -0.10560206 4286869059
-0.27928573 0.032583941 -0.10644633 4288576079
-0.27961296 0.034539443 -0.10729361 4289685579
-0.28022933 0.036615953 -0.10880045 4290599734
-0.2823143 0.039293218 -0.11365543 4290796596
-0.28384513 0.041788485 -0.11724954 4290666037
-0.28540152 0.044328023 -0.1209038 4290665782
-0.28792042 0.047315858 -0.12675561 4290403897
-0.28954595 0.049964108 -0.13057201 4290208314
-0.29152471 0.05280738 -0.13519657 4290077756
-0.29255179 0.055254441 -0.13765085 4290013502
-0.29325736 0.057573117 -0.13937242 4290278729
-0.29784 -0.040014874 -0.14894004 4289358408
-0.29717627 -0.038034234 -0.14753845 4289617466
-0.2968674 -0.036071099 -0.14694533 4289748277
-0.29586321 -0.034107395 -0.14476627 4289878834
-0.29384515 -0.032165013 -0.14027338 4290009650
-0.29253733 -0.030252127 -0.13739878 4289878065
-0.2922444 -0.028340274 -0.13683911 4289616691
-0.29063043 -0.026476335 -0.13326347 4289682483
-0.28872219 -0.024655838 -0.12901419 4289813041
-0.28685305 -0.022869967 -0.12485208 4289681714
-0.28471348 -0.021137198 -0.12007011 4289616178
-0.2835305 -0.019375602 -0.11747172 4289747506
-0.28266355 -0.01760974 -0.11559447 4289683768
-0.28180528 -0.015858866 -0.11373609 4289097027
-0.28125104 -0.014092062 -0.1125721 4287853385
-0.28070047 -0.012334345 -0.11141608 4286476606
-0.28073996 -0.010512749 -0.11160952 4284767287
-0.28077954 -0.0086886222 -0.11180324 4283644457
-0.28081915 -0.0068619386 -0.11199723 4285158449
-0.28085881 -0.0050327252 -0.11219149 4286740291
-0.28089851 -0.0032009296 -0.11238603 4288581212
-0.2809383 -0.0013665812 -0.11258083 4289038952
-0.28097814 0.00047035702 -0.11277591 4289104231
-0.28101802 0.0023098479 -0.11297127 4289427547
-0.28105795 0.0041519208 -0.1131669 4289615927
-0.28051043 0.0058696172 -0.11201543 4289745967
-0.27996647 0.0075786272 -0.11087167 4289877551
-0.27942616 0.0092791161 -0.10973573 4289745711
-0.27888942 0.010971108 -0.10860743 4289877808
-0.27835616 0.012654719 -0.10748664 4289944114
-0.27782646 0.014330032 -0.10637341 4290206256
-0.27730018 0.015997123 -0.10526761 4290271541
-0.27677733 0.017656093 -0.10416912 4290212428
-0.27681673 0.019473828 -0.10436216 4289759844
-0.27685621 0.021294108 -0.10455548 4289367660
-0.27689573 0.023116991 -0.10474906 4289106030
-0.27693531 0.024942435 -0.10494292 4288580457
-0.27697498 0.026770476 -0.10513705 4288250718
-0.27729577 0.028699573 -0.10597823 4288446551
-0.2781845 0.030841876 -0.10812695 4288967504
-0.27850944 0.03279525 -0.10897894 4290011711
-0.27940997 0.034976702 -0.11115677 4290337591
-0.28002879 0.037068296 -0.11268688 4290469172
-0.28094423 0.039293911 -0.11490133 4290338611
-0.28366259 0.042284533 -0.12127142 4290142005
-0.28522685 0.044845384 -0.12498471 4290142262
-0.28775954 0.047860682 -0.13093267 4290011450
-0.28939381 0.050531909 -0.13481194 4290076987
-0.29040521 0.052956138 -0.13725644 4290012222
-0.29142717 0.055408385 -0.13972665 4289948738
-0.29179934 0.057574976 -0.14069845 4290214992
-0.29571137 -0.038039941 -0.14886981 4289356864
-0.29540414 -0.036076672 -0.14827521 4289552183
-0.29440677 -0.034112778 -0.14608996 4289682739
-0.29307997 -0.032168183 -0.14314403 4289878577
-0.29210737 -0.030243978 -0.14101353 4289943601
-0.29181269 -0.028321905 -0.14044546 4289812787
-0.29052284 -0.026437188 -0.13758124 4289747505
-0.28860149 -0.024604328 -0.13325855 4289813040
-0.2867198 -0.022806583 -0.12902509 4289681458
-0.2848765 -0.021042887 -0.12487814 4289681458
-0.28307042 -0.019312201 -0.12081511 4289878576
-0.28220049 -0.017537652 -0.11891256 4289878577
-0.28133929 -0.015778258 -0.11702926 4289617207
-0.28048667 -0.014033796 -0.11516492 4288899908
-0.2799359 -0.012270333 -0.11399735 4287853129
-0.27997461 -0.010442609 -0.11419231 4286673473
-0.27971992 -0.0086520612 -0.11370885 4285685824
-0.27946609 -0.0068648444 -0.1132272 4286477126
-0.27950481 -0.0050354912 -0.11342234 4288184916
-0.27954361 -0.0032035562 -0.11361775 4289040488
-0.27958241 -0.0013690608 -0.11381344 4289169769
-0.27903861 0.0003591507 -0.1126599 4288972905
-0.27907741 0.0021927555 -0.11285549 4289562205
-0.27940726 0.0040892991 -0.11372561 4289813301
-0.27915522 0.0058677122 -0.11324749 4289614381
-0.27861476 0.0075768637 -0.1121006 4289614380
-0.27836531 0.0093460353 -0.11162803 4289549358
-0.27783018 0.011040704 -0.11049256 4289615153
-0.27729857 0.012726963 -0.10936479 4289680435
-0.27705342 0.014481162 -0.10890122 4289877042
-0.27652702 0.016153278 -0.10778457 4290074164
-0.27600408 0.017817223 -0.10667538 4290013253
-0.27604267 0.019640945 -0.10686991 4289625693
-0.27580172 0.02138024 -0.10641517 4289366121
-0.27584037 0.02320618 -0.10660994 4289102948
-0.27587906 0.025034701 -0.10680499 4288903772
-0.27619764 0.026961636 -0.1076508 4289097041
-0.27708146 0.029096525 -0.1098117 4289553989
-0.27768859 0.031151129 -0.11133006 4290142777
-0.27829969 0.033221725 -0.11285859 4290404149
-0.27920413 0.035419665 -0.11507055 4290338101
-0.28011751 0.037641946 -0.11730462 4290403635
-0.2813361 0.040008977 -0.12025063 4290141748
-0.28378156 0.04291372 -0.12605572 4289945654
-0.28535905 0.045501657 -0.12984177 4289814840
-0.28759617 0.048412953 -0.13516703 4289749820
-0.2885955 0.050819427 -0.13760984 4289880893
-0.28960523 0.053253666 -0.14007825 4290012480
-0.28997248 0.055410076 -0.14104962 4290015048
-0.29359582 -0.036076203 -0.14880241 4289290812
-0.29295012 -0.034118164 -0.14741382 4289551925
-0.29230911 -0.032171406 -0.1460354 4289879089
-0.29133621 -0.030240202 -0.14388292 4290010161
-0.2913762 -0.028303336 -0.14409041 4289879092
-0.29041347 -0.026397487 -0.14196011 4289878580
-0.2888051 -0.024537789 -0.13832305 4289878321
-0.28690401 -0.022725066 -0.13400133 4289746994
-0.28504208 -0.020946959 -0.12976865 4289615922
-0.28321803 -0.019202434 -0.12562235 4289616178
-0.28203529 -0.017439127 -0.12297107 4289615923
-0.28116819 -0.015668297 -0.12105563 4289550900
-0.28030983 -0.013912641 -0.11915964 4289420599
-0.27916607 -0.012205918 -0.11659592 4289159229
-0.27920395 -0.010372 -0.1167924 4288506442
-0.27836537 -0.0086551132 -0.11494017 4287721300
-0.27811283 -0.0068677482 -0.11445739 4287788629
