# .PCD v0.7 - Point Cloud Data file format
VERSION 0.7
FIELDS x y z rgba
SIZE 4 4 4 4
TYPE F F F U
COUNT 1 1 1 1
WIDTH 999
HEIGHT 1
VIEWPOINT 0 0 0 1 0 0 0
POINTS 999
DATA ascii
-0.29922974 0.036134984 -0.087862454 4293486650
-0.29928508 0.037982181 -0.088044733 4293486393
-0.29965845 0.039948866 -0.088848501 4293486136
-0.29939601 0.041684475 -0.088410042 4293485878
-0.29913446 0.043417133 -0.087973185 4293421112
-0.29950723 0.045397297 -0.088776395 4293356603
-0.29956299 0.047257677 -0.08895997 4293159742
-0.29993716 0.049252525 -0.08976654 4292963388
-0.30031267 0.051256489 -0.090576015 4293094714
-0.30133387 0.05354837 -0.092649259 4292898367
-0.30203915 0.055721276 -0.094105028 4293161023
-0.3034066 0.058207806 -0.096857563 4293685311
-0.30479214 0.060729869 -0.099646658 4293620545
-0.30687603 0.063607708 -0.10380436 4293423935
-0.30935067 0.066713527 -0.10872903 4292965444
-0.31368849 0.070777982 -0.11730552 4292441671
-0.31447947 0.073158778 -0.11893594 4291852365
-0.31564581 0.075746603 -0.12130263 4292056161
-0.32503784 -0.042132679 -0.1390034 4290671430
-0.32345566 -0.040074613 -0.13599032 4291127355
-0.32149586 -0.03803423 -0.13223712 4291389241
-0.31957155 -0.036027938 -0.12855195 4291585848
-0.31768173 -0.034054872 -0.12493299 4291063616
-0.31582552 -0.032114152 -0.12137845 4289168213
-0.31400198 -0.030204866 -0.11788661 4286674768
-0.31257737 -0.028318528 -0.11517498 4285291321
-0.31117254 -0.026455732 -0.11250124 4286410820
-0.31014562 -0.024601975 -0.11056707 4288907095
-0.30948538 -0.02274755 -0.10935105 4290476884
-0.30777216 -0.020963725 -0.10607005 4291716925
-0.30712801 -0.019138528 -0.10488432 4291978551
-0.30648828 -0.017323114 -0.10370682 4292109623
-0.30619746 -0.015488294 -0.10321347 4292241207
-0.3048808 -0.0137531 -0.10070697 4292372792
-0.30425629 -0.011969234 -0.099558026 4292568631
-0.30296579 -0.010269609 -0.097101316 4292961590
-0.30136326 -0.0086296601 -0.094031073 4293091891
-0.30108887 -0.0068447511 -0.093567833 4292961333
-0.29855502 -0.0053776079 -0.088666625 4292961332
-0.29797155 -0.0036660878 -0.087595023 4292961332
-0.2977078 -0.001913412 -0.087151207 4292961335
-0.29744494 -0.00016385068 -0.086709015 4292764214
-0.29718301 0.0015825982 -0.086268499 4290928689
-0.29723606 0.0033839953 -0.086447097 4288825385
-0.29697505 0.0051269652 -0.086008251 4285937441
-0.29671493 0.0068668532 -0.085571021 4284100118
-0.29645571 0.0086036837 -0.085135445 4284231192
-0.29619741 0.010337498 -0.08470156 4288037410
-0.29594001 0.012068274 -0.084269278 4291909420
-0.29506731 0.01364811 -0.082625799 4293156911
-0.29481348 0.015367714 -0.082200065 4293223731
-0.29486635 0.017163457 -0.082378089 4293156914
-0.29491928 0.018961722 -0.082556389 4293550128
-0.29497233 0.020762533 -0.08273492 4293681458
-0.29471937 0.022478223 -0.082310699 4293616180
-0.29538572 0.024462555 -0.083697975 4293354039
-0.29543906 0.02627388 -0.083877549 4293288758
-0.29580075 0.028184632 -0.084665149 4293157686
-0.29616365 0.030104032 -0.085455433 4292961333
-0.29652783 0.032032184 -0.086248547 4293092146
-0.29689321 0.033969074 -0.087044455 4293420084
-0.29757345 0.036024988 -0.088461846 4293486647
-0.29794246 0.03798287 -0.089265674 4293420599
-0.29831269 0.039949693 -0.090072311 4293485879
-0.29805148 0.041685466 -0.089632757 4293551413
-0.29779115 0.043418266 -0.089194819 4293290297
-0.29816082 0.045398563 -0.090000883 4293159994
-0.2982156 0.047259107 -0.090185344 4293094205
-0.29827043 0.049122293 -0.090370074 4292962620
-0.29864168 0.051122941 -0.091180064 4293093177
-0.29933268 0.05327145 -0.092622362 4293161279
-0.3000282 0.055436578 -0.094074257 4293095997
-0.30137709 0.057913307 -0.096818529 4293423423
-0.30274376 0.060425285 -0.099599048 4293555519
-0.30547461 0.063610263 -0.10507901 4293227584
-0.30758545 0.066549122 -0.1093346 4293030465
-0.31187847 0.0706034 -0.11790983 4292375365
-0.31302419 0.073161915 -0.12025963 4291786057
-0.31381461 0.075562246 -0.12190714 4292055131
-0.32271987 -0.042104155 -0.13875057 4290474307
-0.32115942 -0.040053673 -0.13575132 4290800444
-0.31962174 -0.038030345 -0.13279599 4291192892
-0.3173286 -0.036021654 -0.12834591 4291454522
-0.31546453 -0.034055524 -0.1247426 4291062336
-0.31363344 -0.032121506 -0.12120317 4289625942
-0.31183454 -0.030218722 -0.11772607 4287858006
-0.31042895 -0.028338697 -0.11502587 4287135302
-0.30904287 -0.026482049 -0.11236327 4287859025
-0.30802947 -0.024634376 -0.11043734 4289236577
-0.30667651 -0.022820031 -0.10783842 4290347355
-0.30603391 -0.020987887 -0.10664523 4291390275
-0.30505145 -0.01918852 -0.10477845 4291781944
-0.30476204 -0.01735297 -0.10428391 4291978294
-0.30413264 -0.015550033 -0.10311551 4292175928
-0.30283323 -0.013820083 -0.10061898 4292307000
-0.30221668 -0.012041822 -0.099474989 4292437814
-0.30061403 -0.010384209 -0.0963756 4292764981
-0.29936141 -0.0087118661 -0.093969159 4292830004
-0.29876757 -0.0069747646 -0.092868321 4292699445
-0.29658958 -0.0054688621 -0.088624671 4292699187
-0.29601344 -0.003762448 -0.087557569 4292567605
-0.29575273 -0.0020151013 -0.087116055 4291911992
-0.29549298 -0.00027086242 -0.08667624 4289941807
-0.29523408 0.0014702649 -0.086238049 4286925092
-0.29497609 0.0032083269 -0.085801512 4284755741
-0.29471904 0.0049433433 -0.085366644 4283443481
-0.29446286 0.0066753221 -0.084933415 4282918934
-0.29451478 0.0084700324 -0.085112184 4283116051
-0.29425946 0.010198632 -0.08468052 4285281049
-0.29339516 0.011782512 -0.083038323 4290005286
-0.29314339 0.013499946 -0.08261323 4292631855
-0.29289249 0.015214475 -0.082189687 4293158451
-0.29294428 0.017004644 -0.082368009 4293092660
-0.29299614 0.018797379 -0.082546584 4293287217
-0.2927461 0.020508384 -0.082124583 4293549874
-0.29279801 0.022303332 -0.082303382 4293550644
-0.29315215 0.024190741 -0.083083831 4293222709
-0.29350752 0.026086675 -0.083867006 4293026103
-0.29386404 0.027991198 -0.084652901 4293026359
-0.29422179 0.029904332 -0.085441552 4293026356
-0.29458079 0.031826157 -0.086233012 4293222961
-0.29494095 0.033756699 -0.087027177 4293420082
-0.29561183 0.035805494 -0.08844088 4293420852
-0.29659963 0.037983552 -0.090486825 4293420084
-0.29665315 0.039833691 -0.090671122 4293485622
-0.29670674 0.041686434 -0.09085568 4293486133
-0.29676041 0.043541826 -0.091040485 4293158454
-0.29681417 0.045399856 -0.091225572 4293093945
-0.296868 0.047260519 -0.09141092 4293094204
-0.29692188 0.049123865 -0.091596536 4292897852
-0.29697588 0.050989844 -0.091782399 4292700477
-0.2976594 0.053134609 -0.093225174 4292963130
-0.29866582 0.055438619 -0.095313355 4292833598
-0.30000484 0.057915501 -0.098066613 4292833086
-0.30103454 0.060274929 -0.10020308 4293357627
-0.30440989 0.063773371 -0.10702705 4293095488
-0.30616868 0.066551872 -0.11062325 4292899907
-0.31043148 0.070606366 -0.11922595 4292375621
-0.3112078 0.072982758 -0.12086204 4291916873
-0.31198955 0.0753785 -0.12250976 4291922521
-0.32082117 -0.042093005 -0.13930295 4289753157
-0.31927642 -0.040046263 -0.13630612 4290210620
-0.31736314 -0.038016886 -0.13257231 4290996540
-0.31548429 -0.036021303 -0.12890582 4291323450
-0.31326285 -0.034056172 -0.12455371 4291192639
-0.31145665 -0.032128807 -0.12102937 4290345555
-0.31004527 -0.030228073 -0.11829256 4289171294
-0.30865359 -0.028351128 -0.11559404 4288779871
-0.30692768 -0.026508182 -0.11222645 4289369960
-0.30592766 -0.024666585 -0.11030874 4289958765
-0.30493793 -0.022841217 -0.10841087 4290610272
-0.30430141 -0.021011967 -0.1072187 4291324485
-0.30332839 -0.019215368 -0.10535304 4291650360
-0.30270278 -0.017408602 -0.10418166 4291912503
-0.30208147 -0.015611379 -0.10301846 4292109879
-0.3007991 -0.013886645 -0.10053173 4292239923
-0.29986158 -0.012148127 -0.098734379 4292502323
-0.29860881 -0.010461039 -0.09630511 4292633651
-0.29705307 -0.0088326456 -0.093268141 4292568630
-0.29646873 -0.0071035014 -0.092175849 4292502837
-0.2952604 -0.0054715732 -0.089832969 4292239923
-0.29406774 -0.0038581658 -0.08752054 4290928436
-0.29411861 -0.0020669005 -0.087699816 4288892464
-0.29386094 -0.00032527596 -0.087260574 4285871908
-0.29360417 0.0014133129 -0.086822994 4283903769
-0.29334828 0.0031488265 -0.086387128 4283050008
-0.29309329 0.0048813028 -0.085952863 4282722839
-0.29283917 0.0066107563 -0.085520215 4282788120
-0.292586 0.0083372081 -0.085089244 4283050260
-0.29203135 0.0099927615 -0.084053092 4283639830
-0.2914803 0.011640346 -0.083023772 4287642397
-0.29123142 0.013352708 -0.082600877 4291516717
-0.29098344 0.015062203 -0.082179599 4292896052
-0.29103416 0.016846864 -0.082358204 4293027637
-0.29108495 0.018634079 -0.08253707 4293025589
-0.29083773 0.020340087 -0.08211726 4293221683
-0.29088861 0.022129511 -0.082296334 4293353266
-0.29123771 0.024010835 -0.083075181 4293221937
-0.29158795 0.025900654 -0.083856679 4293025842
-0.29193941 0.027798997 -0.084640943 4293091637
-0.29259425 0.029805006 -0.086035915 4293157429
-0.29294914 0.03172376 -0.086827897 4293289011
-0.29330522 0.03365121 -0.087622702 4293485619
-0.29427618 0.035806015 -0.089655474 4293420341
-0.29525656 0.037984245 -0.091708168 4293355318
-0.29562059 0.039951373 -0.092520498 4293289270
-0.29536179 0.041687418 -0.092078768 4293223479
-0.29541451 0.043542959 -0.092264481 4293093432
-0.29546729 0.04540113 -0.092450455 4293093433
-0.29552019 0.04726195 -0.092636675 4292963645
-0.29557312 0.049125437 -0.092823178 4292832317
-0.29531515 0.050857153 -0.092382953 4292700988
-0.29567924 0.052860383 -0.093196966 4293027383
-0.29667187 0.055155747 -0.09527915 4292963130
-0.29799256 0.057622895 -0.098024085 4292899134
-0.29933065 0.060125057 -0.10080528 4292701755
-0.30334145 0.063937068 -0.1089819 4292767550
-0.30475166 0.066554591 -0.1119121 4292636736
-0.30934009 0.070786886 -0.12126072 4292112708
-0.31011295 0.073168166 -0.12290765 4291785799
-0.31053028 0.075381793 -0.12383712 4291855957
-0.3193289 -0.042099144 -0.14065909 4290147403
-0.31740007 -0.040038843 -0.13685901 4290669887
-0.3158932 -0.038022641 -0.13390823 4291062330
-0.31364638 -0.036020953 -0.129464 4291257658
-0.31181964 -0.03406154 -0.12586537 4291258172
-0.30965936 -0.032135032 -0.12159238 4290999367
-0.30826202 -0.030237421 -0.11885734 4290415968
-0.30688417 -0.028363511 -0.11616051 4290224245
-0.30517545 -0.026523484 -0.11279468 4290486906
-0.30418515 -0.024684805 -0.11087821 4290748022
-0.30320501 -0.022862304 -0.10898156 4291070050
-0.30223495 -0.021055728 -0.10710443 4291454531
-0.30127472 -0.019264845 -0.10524651 4291584310
-0.30065715 -0.017463828 -0.10408035 4291781429
-0.29971299 -0.015700772 -0.10225358 4292108851
-0.29845178 -0.013983889 -0.099785186 4292305457
-0.29752958 -0.012253379 -0.098001309 4292436275
-0.29597914 -0.010610025 -0.094946139 4292436785
-0.29476705 -0.0089522507 -0.092574172 4292240694
-0.29419202 -0.0072309845 -0.091490299 4291977525
-0.29331154 -0.0055622463 -0.089787818 4290468145
-0.29243961 -0.0039070672 -0.088102005 4287581737
-0.2924895 -0.0021185712 -0.088281833 4285018399
-0.29223391 -0.00037948514 -0.087843232 4283377690
-0.29197925 0.0013565257 -0.087406322 4282918170
-0.29172549 0.0030894915 -0.086971022 4282852884
-0.29147255 0.0048194351 -0.086537346 4282657042
-0.29122055 0.0065463698 -0.086105384 4282788630
-0.29096937 0.0082703419 -0.085674964 4282983959
-0.29012153 0.0098561225 -0.084034674 4283246100
-0.28987381 0.01156893 -0.083610766 4285019156
-0.28933135 0.013206409 -0.082588814 4289416484
-0.28908616 0.014910863 -0.082169674 4292369714
-0.28913578 0.016690068 -0.082348578 4292896310
-0.28918549 0.018471805 -0.082527734 4292830777
-0.2889412 0.020172846 -0.082110137 4292959540
-0.28899097 0.021956792 -0.082289517 4293156401
-0.28933504 0.023832053 -0.083066702 4293222703
-0.2896803 0.025715781 -0.083846636 4293222191
-0.29032391 0.027703302 -0.08523307 4293156147
-0.29067251 0.029607199 -0.086020641 4293090612
-0.2913225 0.031621683 -0.087421112 4293157429
-0.29197669 0.033651587 -0.088830806 4293355064
-0.29294032 0.035806566 -0.090870261 4293289272
-0.2939133 0.03798493 -0.092929691 4293158712
-0.29427421 0.039952204 -0.093744881 4293157943
-0.29432601 0.041808229 -0.093931504 4293092408
-0.29437786 0.043666888 -0.094118379 4293093177
-0.29412025 0.045402396 -0.093675517 4293028151
-0.29417217 0.047263362 -0.09386263 4292963129
-0.29391542 0.048995588 -0.093421362 4292831289
-0.2939674 0.050858893 -0.093608715 4292766520
-0.29401943 0.052724831 -0.093796343 4292699450
-0.29469049 0.054874696 -0.095245332 4292699962
-0.29599312 0.057332169 -0.097982101 4292833598
-0.2976321 0.05997568 -0.10140572 4292701245
-0.30193469 0.063939624 -0.11026141 4292702782
-0.30367354 0.066724479 -0.11389271 4292309568
-0.30789015 0.070789836 -0.12257952 4291850306
-0.30865696 0.073171318 -0.12423201 4291588933
-0.30907074 0.075385086 -0.12516472 4291593555
-0.31743947 -0.042088054 -0.14120738 4290279245
-0.3159202 -0.040044762 -0.13820393 4290670402
-0.31403872 -0.038018793 -0.13446164 4290865468
-0.31219104 -0.036026459 -0.13078669 4291126586
-0.31037623 -0.034066875 -0.12717721 4291323704
-0.30823016 -0.032140158 -0.12289132 4291324222
-0.30648479 -0.030246733 -0.11942036 4291000657
-0.30512062 -0.028375853 -0.11672517 4290941286
-0.30342901 -0.026538756 -0.11336121 4291140463
-0.30244839 -0.024702989 -0.11144602 4291204970
-0.30147785 -0.022883344 -0.10955056 4291330390
-0.30051717 -0.02107957 -0.10767459 4291322685
-0.2992346 -0.019314015 -0.10514092 4291452980
-0.29829654 -0.017544089 -0.10330948 4291781170
-0.2973679 -0.015789304 -0.10149653 4291977265
-0.2961275 -0.014080189 -0.099046223 4292109106
-0.29490343 -0.012390995 -0.096628331 4292108082
-0.29369539 -0.010721278 -0.094242148 4291977522
-0.292503 -0.009070687 -0.091887116 4291321138
-0.29193717 -0.0073572304 -0.090811543 4289876271
-0.29137501 -0.0056523141 -0.089743145 4286595109
-0.29081652 -0.0039558383 -0.088681787 4284296982
-0.29086542 -0.0021700452 -0.088862181 4283115797
-0.29091436 -0.00038175128 -0.089042835 4282788374
-0.29066089 0.0013543932 -0.08860486 4282656790
-0.29040828 0.0030875003 -0.088168509 4282525716
-0.28985679 0.0047577918 -0.08712025 4282591764
-0.28960681 0.006482217 -0.086688802 4282722839
-0.28876445 0.008074116 -0.085044302 4282917651
-0.28851789 0.0097873909 -0.084619403 4283048466
-0.28797871 0.011428115 -0.083594859 4283378193
-0.28744295 0.013060995 -0.082577012 4286659352
-0.2872006 0.014760493 -0.082160071 4290794796
-0.28724918 0.016534267 -0.082339242 4292567604
-0.28729782 0.018310547 -0.082518689 4292830518
-0.28705627 0.020006655 -0.082103215 4292895542
-0.28710499 0.021785147 -0.082282871 4293091121
-0.28773543 0.023742957 -0.083656088 4293156911
-0.2880767 0.025623713 -0.084436536 4293222705
-0.2884191 0.027512921 -0.085219741 4293090866
-0.28905788 0.02950882 -0.086611636 4292959026
-0.28970078 0.031519942 -0.088012666 4293090610
-0.29034784 0.033546451 -0.089422815 4293157686
-0.29130119 0.035697617 -0.091462746 4292896312
-0.29256985 0.037985623 -0.094151415 4292961590
-0.29292762 0.039953027 -0.094969459 4293157945
-0.29297847 0.041809224 -0.095156953 4293092664
-0.29302934 0.043668024 -0.095344745 4292962104
-0.29277295 0.045403671 -0.094900779 4292896310
-0.29282394 0.047264799 -0.09508878 4292765751
-0.29256839 0.048997156 -0.094646432 4292569658
-0.29231375 0.050726641 -0.094205767 4292569401
-0.29236475 0.052589752 -0.094393976 4292504126
-0.29333624 0.054876719 -0.096477024 4292503354
-0.29431725 0.057188611 -0.098580569 4292701245
-0.29593897 0.05982681 -0.10200445 4292767295
-0.30085987 0.064103857 -0.11222532 4292505664
-0.30259156 0.066894963 -0.11588025 4291981119
-0.30643997 0.070792794 -0.12389857 4291588163
-0.30720076 0.073174432 -0.12555654 4291458119
-0.30761096 0.075388417 -0.12649253 4291462739
-0.31405297 -0.040037364 -0.13875282 4290605127
-0.31257102 -0.038024537 -0.13579555 4290865985
-0.31073543 -0.036031995 -0.13210957 4291127866
-0.30893257 -0.034072205 -0.12848927 4291258678
-0.30716154 -0.032144275 -0.12493303 4291454520
-0.30542144 -0.03024736 -0.12143908 4291454268
-0.30371153 -0.028380632 -0.11800586 4291389761
-0.3023749 -0.026532704 -0.11534009 4291391561
-0.30139706 -0.024693683 -0.11341234 4291260487
-0.30009219 -0.022887621 -0.11081001 4291389242
-0.29880497 -0.021103356 -0.10824298 4291322421
-0.29753506 -0.019340424 -0.10571062 4291387443
-0.29660612 -0.0175732 -0.10388025 4291714610
-0.29536566 -0.015849015 -0.10140669 4291780915
-0.29382589 -0.014175542 -0.098314703 4291911987
-0.29293355 -0.012460751 -0.096557245 4291845683
-0.29174131 -0.010795888 -0.094180182 4291124273
-0.2908693 -0.0091119017 -0.092463136 4289089838
-0.29030868 -0.0074009309 -0.09138824 4285936162
-0.29005376 -0.0056550074 -0.090944245 4283704854
-0.28949857 -0.0039583817 -0.089879885 4282919188
-0.28954655 -0.0021724715 -0.090061136 4282525714
-0.28959459 -0.00038404576 -0.090242632 4282394645
-0.28904289 0.0012977894 -0.089184739 4282263570
-0.28879234 0.0030283637 -0.088748984 4282525200
-0.28854269 0.0047559221 -0.088314943 4282525715
-0.28799799 0.0064182417 -0.087270588 4282459415
-0.28745681 0.0080725551 -0.086233146 4282589968
-0.28691915 0.0097189071 -0.085202515 4282721555
-0.28638488 0.011357367 -0.084178545 4283048979
-0.28585407 0.012988077 -0.083161309 4284165908
-0.28561369 0.014685173 -0.082744926 4288693539
-0.28537413 0.016379435 -0.082330145 4291844658
-0.2854217 0.018150304 -0.082509875 4292764983
-0.28546935 0.019923652 -0.082689852 4292765241
-0.28551707 0.021699529 -0.082870066 4292829492
-0.28614062 0.023654105 -0.084243789 4292827950
-0.28647792 0.02553191 -0.085024819 4292959792
-0.28681633 0.027418161 -0.085808538 4293091122
-0.28744817 0.029410748 -0.087200999 4293024305
-0.288084 0.031418543 -0.088602498 4293090354
-0.28872398 0.033441618 -0.090013146 4293091893
-0.28996703 0.035698142 -0.092675969 4292830262
-0.29122618 0.037986312 -0.095373333 4292830260
-0.29158083 0.039953861 -0.096194215 4292960822
-0.29163069 0.041810196 -0.096382618 4292961334
-0.29168066 0.043669164 -0.096571267 4292764983
-0.29173064 0.04553077 -0.096760213 4292699191
-0.29147547 0.047266215 -0.096315131 4292568378
-0.29152554 0.049130142 -0.096504308 4292568891
-0.2915757 0.050996725 -0.096693724 4292438329
-0.29132134 0.052728567 -0.096250236 4292307258
-0.29228839 0.05502006 -0.098346509 4292371510
-0.29388726 0.057629477 -0.10175794 4292503867
-0.29519552 0.060132135 -0.10456631 4292504639
-0.30044639 0.064594701 -0.11558017 4292176959
-0.30218235 0.067404307 -0.11928307 4291718463
-0.30533916 0.07097394 -0.12594552 4291456579
-0.3060964 0.073360488 -0.12761436 4291392586
-0.30615097 0.075391717 -0.12782052 4291397720
-0.31257531 -0.040043302 -0.14009571 4290474822
-0.31110305 -0.038030274 -0.13712965 4290735167
-0.30965197 -0.036043458 -0.13420644 4290930490
-0.30785456 -0.034079928 -0.13056204 4291126841
-0.30572939 -0.032149408 -0.12623465 4291257659
-0.30435413 -0.030247953 -0.12346508 4291388986
-0.30264956 -0.028377868 -0.12000929 4291454777
-0.30131698 -0.026526628 -0.117326 4291454264
-0.30034193 -0.024684375 -0.11538567 4291388214
-0.29837275 -0.022908578 -0.11137527 4291322422
-0.29709834 -0.021127032 -0.10880967 4291452981
-0.29551727 -0.019389065 -0.1056044 4291518771
-0.29460052 -0.017627325 -0.10378151 4291518516
-0.29337642 -0.01590836 -0.1013176 4291649331
-0.29216847 -0.014209418 -0.098886296 4291715377
-0.29097632 -0.012530076 -0.096486866 4290993203
-0.29010421 -0.010834579 -0.094753645 4288434992
-0.2895433 -0.009114881 -0.09366852 4285345565
-0.28898603 -0.0074037863 -0.0925906 4283311124
-0.28873229 -0.0056577218 -0.092145525 4282722066
-0.28847948 -0.0039147618 -0.091702044 4282393618
-0.2882275 -0.0021748818 -0.091260262 4282526225
-0.28827462 -0.000386339 -0.091442615 4282459923
-0.28772619 0.0012956688 -0.090381749 4282197268
-0.28747684 0.0030263769 -0.089944936 4282393618
-0.28693372 0.0046944562 -0.088894375 4282459926
-0.28668693 0.0064165168 -0.088462539 4282329369
-0.28585792 0.0080065113 -0.086813919 4282460692
-0.2853252 0.0096506085 -0.085783921 4282787858
-0.28479591 0.011286885 -0.084760621 4282984724
-0.28455582 0.012986919 -0.084341682 4283246101
-0.28431654 0.014684149 -0.083924301 4285871896
-0.28407812 0.016378574 -0.083508521 4290139177
-0.28412479 0.018149553 -0.083689079 4292501297
-0.28417152 0.019923063 -0.083869904 4292830772
-0.28421831 0.021699073 -0.084050983 4292633396
-0.28483689 0.023653783 -0.085429251 4292697394
-0.28517124 0.025531746 -0.086213 4292958768
-0.28550667 0.027418103 -0.086999439 4293024306
-0.28613341 0.029410858 -0.088396534 4292959283
-0.28676414 0.031418789 -0.089802667 4293025587
-0.28739899 0.033442006 -0.091218002 4293026873
-0.28863266 0.03569869 -0.093889393 4292830264
-0.28988227 0.037987009 -0.096595429 4292896309
-0.29023382 0.039954696 -0.097419173 4292829748
-0.29028276 0.041811164 -0.097608447 4292829493
-0.29033172 0.043670271 -0.097798005 4292698937
-0.29038078 0.045532044 -0.097987823 4292568377
-0.29042992 0.047396451 -0.09817791 4292436794
-0.29047909 0.049263544 -0.09836828 4292437306
-0.29083264 0.051268548 -0.099197879 4292241466
-0.29057771 0.053005692 -0.098749824 4292110650
-0.29185069 0.055448797 -0.10151174 4291979066
-0.29345283 0.058074631 -0.10496664 4292044859
-0.29476368 0.060592744 -0.10781092 4292045374
-0.30002847 0.065090522 -0.11896922 4291849023
-0.30176875 0.067918874 -0.12272085 4291587392
-0.30423433 0.071155734 -0.12799978 4291390786
-0.304988 0.073547192 -0.12967958 4291327051
-0.30504161 0.075582109 -0.12988706 4291266909
-0.31109747 -0.040049206 -0.14143881 4290213194
-0.30963486 -0.038036015 -0.13846397 4290604096
-0.30819333 -0.036049005 -0.13553211 4290734140
-0.30677247 -0.034087706 -0.13264237 4290930235
-0.304654 -0.032153543 -0.12828621 4290995516
-0.30328295 -0.030248582 -0.12549838 4290995003
-0.30158368 -0.028375091 -0.12201978 4291125816
-0.30025521 -0.026520563 -0.11931898 4291387957
-0.29894498 -0.024688831 -0.11665539 4291387957
-0.29698902 -0.022912845 -0.11263297 4291322422
-0.29539725 -0.021150628 -0.10937465 4291322164
-0.293832 -0.019415244 -0.10617086 4291322163
-0.29292423 -0.017656157 -0.10434905 4291321651
-0.29171228 -0.015939686 -0.10188636 4291320883
-0.29051626 -0.014243178 -0.099456131 4290599217
-0.28964117 -0.012533363 -0.097700536 4288040750
-0.289078 -0.010802156 -0.096601173 4285017885
-0.28851852 -0.0090796715 -0.095509127 4283114776
-0.28796276 -0.0073657651 -0.094424441 4282722070
-0.28770939 -0.0056168083 -0.093976475 4282590225
-0.28745687 -0.0038709815 -0.093530267 4282459155
-0.28720522 -0.002128259 -0.093085676 4282459922
-0.28695443 -0.00038860869 -0.092642792 4282394640
-0.28640935 0.0012935196 -0.091578923 4282526479
-0.28616115 0.0030243762 -0.09114106 4282328594
-0.28562129 0.0046926211 -0.090087555 4282392854
-0.2850849 0.0063527855 -0.089040987 4282523158
-0.28455195 0.0080049327 -0.088001244 4282720785
-0.28402242 0.0096491734 -0.086968355 4282787091
-0.28349632 0.011285586 -0.085942186 4282983699
-0.28297353 0.012914234 -0.084922656 4283050002
-0.28273624 0.01460906 -0.084505916 4283903253
-0.28278193 0.016377693 -0.084687069 4288693539
-0.28282768 0.018148826 -0.084868491 4292107311
-0.28287348 0.019922467 -0.085050151 4292961843
-0.28291938 0.021698616 -0.085232079 4292765238
-0.28324866 0.023565236 -0.0860136 4292435251
-0.28357908 0.025440227 -0.086797915 4292499247
-0.28419679 0.027418079 -0.088190533 4292630833
-0.28481847 0.029410968 -0.089592241 4292827954
-0.28544414 0.031419031 -0.091003016 4293025845
-0.28607383 0.033442415 -0.092423037 4292830009
-0.28700238 0.035590068 -0.094476677 4292632887
-0.28823858 0.037874151 -0.097183011 4292632374
-0.28858599 0.039838668 -0.098007321 4292567094
-0.28863388 0.04169232 -0.098197177 4292567863
-0.2889826 0.043671411 -0.099024922 4292436793
-0.2890307 0.045533322 -0.099215642 4292305976
-0.28938076 0.047527138 -0.10004697 4292306492
-0.2894291 0.049397364 -0.10023852 4292240952
-0.28978053 0.051405989 -0.10107338 4292044089
-0.29013312 0.053423781 -0.10191117 4291914042
-0.29110029 0.055737615 -0.10405393 4291717180
-0.2930139 0.058524184 -0.10820717 4291717179
-0.29432738 0.061057907 -0.1110879 4291586366
-0.29960608 0.065591395 -0.12239301 4291586879
-0.30100968 0.068265766 -0.12546973 4291456319
-0.30347356 0.07151819 -0.13080119 4291325249
-0.30422616 0.073919393 -0.13249752 4291196235
-0.30427891 0.075961515 -0.1327067 4291070560
-0.30854014 -0.038051333 -0.14059085 4290408260
-0.30747268 -0.036066536 -0.13842358 4290537534
-0.30605084 -0.034097914 -0.13550371 4290733885
-0.30393156 -0.032156669 -0.1311027 4290996027
-0.30255976 -0.030244842 -0.12828617 4291126586
-0.3008599 -0.028364735 -0.12477211 4291322423
-0.29918951 -0.026514476 -0.121319 4291387701
-0.29788339 -0.024679493 -0.11863803 4291256371
-0.29560512 -0.02291711 -0.11389086 4291255603
-0.29370162 -0.021174142 -0.10993791 4291256116
-0.29215217 -0.01944131 -0.1067357 4291256371
-0.2912533 -0.017684883 -0.10491495 4291124786
-0.29005343 -0.015970884 -0.1024534 4290140211
-0.28886923 -0.01427683 -0.1000243 4287186733
-0.28830579 -0.012536671 -0.098914392 4284887580
-0.28774607 -0.010805293 -0.09781193 4283377174
-0.28718996 -0.0090826573 -0.096716829 4282852627
-0.28663757 -0.007368627 -0.095629096 4282458898
-0.28638539 -0.0056195296 -0.09518005 4282524176
-0.28613409 -0.0038735543 -0.094732776 4282590481
-0.28588364 -0.0021306907 -0.094287105 4282394644
-0.28563407 -0.00039089943 -0.09384314 4282263060
-0.28509223 0.0012913719 -0.092776306 4282524688
-0.28484523 0.0030223697 -0.092337377 4282197524
-0.28430864 0.0046907575 -0.091280915 4282131220
-0.28377551 0.0063510654 -0.090231426 4282392849
-0.2832458 0.0080033559 -0.089188755 4282654991
-0.28243515 0.0095811244 -0.087546431 4282918417
-0.28219655 0.011284289 -0.087123923 4283049744
-0.28167692 0.01291308 -0.086101547 4283114768
-0.28144073 0.01460804 -0.085683815 4283246356
-0.2814855 0.016376827 -0.085865811 4287249437
-0.28153035 0.0181481 -0.086048067 4291057964
-0.28157526 0.01992188 -0.086230583 4292830259
-0.28162023 0.02169816 -0.086413354 4293092917
-0.28194657 0.023564918 -0.087197587 4292567862
-0.28227404 0.025440047 -0.087984607 4292172081
-0.28260258 0.027323598 -0.088774331 4292171311
-0.28321734 0.029313182 -0.090176471 4292499761
-0.28383601 0.031317905 -0.091587745 4292763444
-0.28445873 0.033337932 -0.093008265 4292566838
-0.28537714 0.035481825 -0.095062338 4292370485
-0.28600982 0.037536457 -0.096505798 4292370744
-0.28664666 0.039606888 -0.097958766 4292304952
-0.28669342 0.041454736 -0.098148912 4292305206
-0.28733465 0.043549713 -0.099612467 4292304694
-0.28768042 0.0455346 -0.10044364 4292174648
-0.28802732 0.047528565 -0.10127785 4292044602
-0.2883755 0.049531635 -0.102115 4292044086
-0.2890276 0.051680461 -0.10360432 4291978552
-0.28968403 0.053845949 -0.10510357 4291847993
-0.29096168 0.056318849 -0.10793604 4291585595
-0.29351905 0.05943447 -0.11351518 4291454266
-0.29484802 0.061999794 -0.11646115 4291324221
-0.30019435 0.066605955 -0.12803102 4291324478
-0.30127117 0.069139294 -0.13044031 4291390526
-0.30340701 0.072247706 -0.13512479 4291259970
-0.30381057 0.074480951 -0.1360909 4291066446
-0.30421564 0.076724984 -0.1370607 4290809699
-0.30744123 -0.038066737 -0.14272568 4290277446
-0.30637676 -0.036078118 -0.14054385 4290471999
-0.30495924 -0.034105759 -0.1376045 4290537022
-0.30320376 -0.03215982 -0.13393937 4290929978
-0.30183125 -0.030241102 -0.13109379 4291256888
-0.30013087 -0.028354274 -0.12754381 4291387703
-0.29846004 -0.026497539 -0.12405566 4291387956
-0.29648361 -0.024683958 -0.11991031 4291256115
-0.29422095 -0.022921376 -0.11514894 4291059251
-0.29201147 -0.021197578 -0.11049946 4291059507
-0.29047769 -0.019467311 -0.10729877 4290928178
-0.28927797 -0.017738285 -0.10481399 4290665008
-0.28839976 -0.016002005 -0.10301878 4290007855
-0.28722745 -0.014310368 -0.10059085 4287120170
-0.28697023 -0.012539955 -0.10012843 4284166937
-0.28641391 -0.010808449 -0.099022888 4282919450
-0.28586119 -0.0090856384 -0.097924724 4282852631
-0.28531218 -0.0073714582 -0.096833952 4282525205
-0.28506121 -0.0056222198 -0.096383817 4282459925
-0.28481111 -0.0038761036 -0.095935464 4282656533
-0.28456187 -0.0021330914 -0.09548872 4282394131
-0.28431347 -0.00039318888 -0.095043682 4282524688
-0.28377497 0.0012892328 -0.093973853 4282458898
-0.28352913 0.0030203643 -0.093533874 4282459414
-0.28299582 0.0046889023 -0.092474453 4282459411
-0.28218019 0.0062875012 -0.090806477 4282589968
-0.28165546 0.0079375515 -0.089764558 4282589967
-0.28113404 0.0095796939 -0.088729374 4282656015
-0.28061599 0.011214021 -0.087701 4282918418
-0.2803801 0.01291195 -0.087280609 4283114770
-0.28014502 0.014607045 -0.086861886 4283180819
-0.28018889 0.016375948 -0.087044731 4285740057
-0.28023285 0.018147381 -0.087227829 4289876779
-0.28027681 0.019921293 -0.087411195 4292502324
-0.28032088 0.021697707 -0.087594822 4293092918
-0.28036499 0.023476636 -0.08777871 4292634425
-0.28068849 0.025348842 -0.088566184 4292042291
-0.28101316 0.027229436 -0.089356452 4291842859
-0.28133887 0.029118489 -0.090149455 4292040237
-0.28194875 0.031116407 -0.091557056 4292435249
-0.28256255 0.033129547 -0.092973828 4292369202
-0.28260756 0.034943499 -0.09316133 4292238644
-0.28380209 0.037201989 -0.095835231 4292107831
-0.2847195 0.03937659 -0.097910807 4292173367
-0.28505778 0.041337006 -0.098734327 4292108852
-0.28598726 0.04355083 -0.1008378 4292108084
-0.2863299 0.045535877 -0.10167184 4291846711
-0.28667369 0.047529981 -0.10250891 4291716151
-0.2873182 0.049666319 -0.10399769 4291846198
-0.28826955 0.051956724 -0.10615189 4291847480
-0.28923029 0.054272294 -0.10832747 4291716153
-0.2905103 0.05676033 -0.11119602 4291454011
-0.29403412 0.060363047 -0.11893009 4291190586
-0.2960338 0.063284613 -0.12336306 4291061821
-0.30010757 0.067294896 -0.13229635 4291259199
-0.30153698 0.070028007 -0.1354975 4291324992
-0.30333927 0.072987445 -0.13950925 4291129670
-0.30409989 0.075427987 -0.14126216 4290805844
-0.3063381 -0.038082197 -0.14486846 4290277960
-0.30527666 -0.036089744 -0.142672 4290538047
-0.30422676 -0.034116082 -0.14049953 4290537020
-0.30247054 -0.03216299 -0.13679652 4290667576
-0.30109739 -0.030237304 -0.13392155 4290994742
-0.29939649 -0.028343769 -0.13033517 4291191093
-0.29806641 -0.026469618 -0.12755091 4291256372
-0.29508358 -0.024688421 -0.12118281 4291256117
-0.29316083 -0.022908982 -0.11711013 4291125045
-0.29064238 -0.021201672 -0.11174386 4290927922
-0.28911906 -0.019471202 -0.1085337 4290665265
-0.28792736 -0.017742036 -0.10604162 4290599729
-0.2870549 -0.016005596 -0.10424123 4290533680
-0.28619102 -0.014283696 -0.10245877 4289024046
-0.28563446 -0.012543234 -0.10134266 4286858021
-0.28508151 -0.010811578 -0.10023405 4285347872
-0.28453222 -0.0090886438 -0.099132799 4284165913
-0.28398657 -0.0073743179 -0.098038986 4282985752
-0.2837368 -0.0056249383 -0.097587794 4282525720
-0.28348792 -0.0038786738 -0.09713833 4282524948
-0.28323987 -0.002135528 -0.096690521 4282197780
-0.28299269 -0.00039547711 -0.096244402 4282458901
-0.28245747 0.0012870874 -0.095171593 4282459154
-0.28221285 0.0030183673 -0.094730556 4282328343
-0.28168279 0.0046870415 -0.093668185 4282394387
-0.28115612 0.0063476283 -0.092612833 4282787857
-0.28035095 0.0079359785 -0.090950571 4282656784
-0.27955338 0.0095118396 -0.089304209 4282590481
-0.27931783 0.011212735 -0.088881277 4282853140
-0.27880621 0.012839471 -0.087856717 4282984468
-0.27857304 0.014532168 -0.087438509 4283116308
-0.27861592 0.016298473 -0.087621912 4285215512
-0.27865887 0.018067248 -0.087805577 4289286187
-0.2787019 0.019838532 -0.087989502 4292043573
-0.27874497 0.021612309 -0.088173673 4292896055
-0.27906451 0.023476314 -0.088961199 4292896313
-0.2788313 0.025167432 -0.088542826 4292173878
-0.27915108 0.027042003 -0.089331448 4291515437
-0.27947193 0.028925003 -0.090122737 4291580971
-0.28007314 0.030916182 -0.091526747 4291975726
-0.28039706 0.032819249 -0.092325762 4292041007
-0.28016064 0.034519039 -0.09190084 4292041267
-0.28133124 0.036760703 -0.094550721 4291844917
-0.28251678 0.039033484 -0.097234599 4291845173
-0.28342715 0.041219644 -0.099318035 4291846452
-0.28434631 0.043429516 -0.1014218 4291780149
-0.28527445 0.045663387 -0.10354622 4291518517
-0.28591341 0.047791164 -0.10503898 4291518517
-0.28655663 0.04993546 -0.10654177 4291583543
-0.28780964 0.052373637 -0.10938021 4291584313
-0.28938764 0.054990895 -0.11293156 4291518779
-0.29036573 0.057355106 -0.11517082 4291323196
-0.29455942 0.061310522 -0.12445515 4291060027
-0.29792437 0.06493976 -0.13192809 4291061565
-0.30001932 0.06799344 -0.13662133 4291258941
-0.30145708 0.070750736 -0.13987617 4291258687
-0.30327034 0.073737659 -0.14395593 4290998344
-0.3054789 0.076976404 -0.14890465 4290610523
-0.30523071 -0.038097713 -0.14701925 4290147660
-0.30380657 -0.036095347 -0.14400809 4290538559
-0.30276361 -0.034121502 -0.14182933 4290537274
-0.301375 -0.032167196 -0.13889338 4290471225
-0.30035806 -0.03023348 -0.13676955 4290732853
-0.29865673 -0.028333157 -0.13314645 4290994227
-0.29698509 -0.026463376 -0.12958683 4291125300
-0.2940129 -0.024679061 -0.12317718 4291125559
-0.29177392 -0.022913251 -0.11837073 4291059766
-0.28927311 -0.02120574 -0.11298845 4290796595
-0.28806952 -0.019453056 -0.11044665 4290534450
-0.2868818 -0.017721009 -0.10793867 4290666035
-0.28601214 -0.015981676 -0.10612684 4290862130
-0.28515106 -0.014256934 -0.10433306 4290468145
-0.28459603 -0.01251358 -0.10320986 4289549359
-0.28404465 -0.010779095 -0.10209417 4288433709
-0.28349692 -0.0090533067 -0.10098606 4287186727
-0.28295279 -0.0073362137 -0.099885337 4286070821
-0.28270337 -0.0055839224 -0.099431269 4285149726
-0.28245479 -0.0038347808 -0.098978937 4284296211
-0.28220713 -0.0020887612 -0.098528355 4283247380
-0.2816717 -0.00039775661 -0.097445317 4283246618
-0.28142658 0.0013393827 -0.096999876 4283050006
-0.28118229 0.0030734774 -0.096556082 4282723095
-0.28036952 0.0046851891 -0.094862118 4282461461
-0.27984613 0.0063459189 -0.093803816 4282919700
-0.27904624 0.0079344073 -0.092136763 4283116561
-0.27825391 0.0095104063 -0.090485655 4283312917
-0.27801949 0.011211445 -0.090061702 4284034326
-0.27751103 0.012838324 -0.089034304 4284887323
-0.27755302 0.014605034 -0.089218587 4285676063
-0.27732092 0.016297592 -0.088799357 4287382051
-0.27763715 0.018145906 -0.089587927 4289810989
-0.27740508 0.019837944 -0.089168631 4291649588
-0.27744722 0.02161186 -0.089353673 4292502326
-0.27721593 0.023300884 -0.088935956 4292764984
-0.27725816 0.025077056 -0.089121222 4292240184
-0.27730042 0.026855757 -0.089306749 4291319859
-0.27734277 0.028636953 -0.089492545 4291121451
-0.27793357 0.030618066 -0.09088885 4291319085
-0.27742761 0.032206971 -0.089864902 4291581743
-0.2780188 0.034204334 -0.091262907 4291516979
-0.27972874 0.036651779 -0.09513215 4291517492
-0.2811859 0.039034314 -0.098444909 4291583027
-0.28208891 0.04122062 -0.10053505 4291648818
-0.28329185 0.043553088 -0.10328906 4291451443
-0.28451043 0.045918386 -0.10607893 4291518003
-0.28514802 0.048054058 -0.10758573 4291583537
-0.28608987 0.050341628 -0.10976603 4291518517
-0.28765002 0.052935325 -0.11331528 4291518007
-0.28923616 0.055574749 -0.11692368 4291322427
-0.29021901 0.05795778 -0.11919876 4291256891
-0.29509526 0.062277403 -0.13009375 4291256633
-0.29816228 0.065790147 -0.13698789 4291192893
-0.29992962 0.068701766 -0.1410071 4291127870
-0.30172825 0.07166779 -0.14509754 4290997057
-0.30391914 0.074881531 -0.15005919 4290934347
-0.30469331 0.077372923 -0.15188335 4290612063
-0.30375069 -0.038103517 -0.14836432 4289952082
-0.30269939 -0.036107022 -0.14614677 4290407746
-0.30165949 -0.034129433 -0.14395347 4290471483
-0.30027536 -0.032171421 -0.14099804 4290405433
-0.29926145 -0.030234085 -0.13886011 4290470453
-0.29756576 -0.028330285 -0.13521306 4290797618
-0.29589978 -0.026457105 -0.13163009 4290928436
-0.29326773 -0.024655765 -0.1259076 4290863159
-0.29102901 -0.022884099 -0.12105304 4290797110
-0.28852889 -0.021171093 -0.11561756 4290665267
-0.28732526 -0.019412644 -0.11305054 4290468658
-0.28613764 -0.017674979 -0.11051784 4290403635
-0.28496575 -0.015957676 -0.10801883 4290665266
-0.28440666 -0.014199697 -0.10687671 4290796336
-0.28385133 -0.01245071 -0.10574237 4290534194
-0.28300419 -0.010746472 -0.10396062 4290140724
-0.28245801 -0.0090178745 -0.10284548 4289812529
-0.28220722 -0.0072567267 -0.10238502 4289352240
-0.28195724 -0.0054987804 -0.10192629 4288628520
-0.28141814 -0.0037907469 -0.1008257 4287512863
-0.28145999 -0.0019923383 -0.10101413 4286529312
-0.28063694 -0.00034814028 -0.099282451 4286397732
-0.28039214 0.0013918367 -0.098834164 4286004771
-0.27986348 0.0030714739 -0.097755045 4285742370
-0.27905607 0.0046833307 -0.096056215 4285349666
-0.27853593 0.0063442038 -0.094994977 4285676578
-0.27774131 0.0079328381 -0.093323149 4286071328
-0.27695423 0.0095089823 -0.091667295 4286398753
-0.27699539 0.011279142 -0.091852762 4287251235
-0.2767621 0.012980032 -0.091427773 4288366633
-0.27652955 0.014678104 -0.091004364 4289351726
-0.27629784 0.016373357 -0.090582594 4290138671
-0.27633902 0.018145163 -0.090768233 4290795312
-0.27610806 0.019837365 -0.090347961 4291517746
-0.27587786 0.021526759 -0.08992929 4292042804
-0.27564847 0.023213426 -0.089512184 4292371510
-0.27541983 0.024897335 -0.089096643 4292044343
-0.27546108 0.02667065 -0.089282431 4291058483
-0.27550235 0.028446469 -0.089468494 4290727467
-0.27500609 0.030029895 -0.08845593 4290859820
-0.27558511 0.032005675 -0.089841411 4290991663
-0.27616778 0.03399631 -0.091235787 4291123764
-0.27702782 0.036109496 -0.093249857 4291255092
-0.27985474 0.039035141 -0.099655449 4291451186
-0.28075045 0.041221585 -0.10175224 4291649328
-0.28223374 0.043677047 -0.10516246 4291517234
-0.28374124 0.046175055 -0.10862835 4291583281
-0.28437743 0.048318651 -0.11014921 4291452720
-0.28561828 0.05075182 -0.1130222 4291452980
-0.28718129 0.053361882 -0.11661687 4291321652
-0.28908244 0.056166407 -0.12096938 4291059511
-0.29007012 0.058568589 -0.12328104 4291060793
-0.29431272 0.062605657 -0.13287556 4291061304
-0.29737705 0.066135958 -0.13983832 4291127611
-0.29879659 0.068882413 -0.14312306 4291062333
-0.30058733 0.071855485 -0.14724052 4290800963
-0.30312881 0.075270362 -0.15304123 4290674772
-0.30086571 -0.036106531 -0.14668083 4290211653
-0.29983661 -0.034132343 -0.14448953 4290471483
-0.29881859 -0.032176655 -0.14232202 4290470455
-0.29781148 -0.030239169 -0.14017795 4290339382
-0.29647076 -0.028327368 -0.1372872 4290535476
-0.29481047 -0.026450815 -0.13368073 4290665780
-0.29251716 -0.024632303 -0.12865706 4290534452
-0.29060137 -0.022837795 -0.12447542 4290468403
-0.28809345 -0.021116592 -0.11896702 4290664754
-0.28688571 -0.019349514 -0.11636548 4290664753
-0.28538832 -0.01762864 -0.11311442 4290205744
-0.28451839 -0.015877983 -0.11126661 4290271024
-0.28365716 -0.01414208 -0.10943735 4290467886
-0.2831015 -0.0123874 -0.10829171 4290402608
-0.28225434 -0.010677789 -0.1064925 4290402865
-0.28170791 -0.0089436425 -0.10536635 4290534194
-0.28145659 -0.0071767452 -0.10490114 4290664754
-0.2809155 -0.005457344 -0.10378616 4290532912
-0.28066677 -0.0036996573 -0.10332628 4290073134
-0.28013098 -0.0019947761 -0.10222231 4289877295
-0.27959868 -0.00029836319 -0.10112569 4289877296
-0.27906984 0.0013896915 -0.1000363 4289680946
-0.27854446 0.0030694718 -0.098954201 4289483567
-0.27774242 0.0046814731 -0.097250506 4289352494
-0.27722552 0.0063424897 -0.096186332 4289483567
-0.27671194 0.0079955189 -0.095129102 4289944369
-0.27592754 0.0095739719 -0.093463004 4290468914
-0.27596787 0.011347053 -0.093649589 4290731313
-0.2757349 0.013050673 -0.093222007 4290993459
-0.27550271 0.0147514 -0.09279599 4291386933
-0.27554306 0.016526418 -0.092982806 4291451442
-0.27531165 0.018224068 -0.092558324 4291254320
-0.27508101 0.019918898 -0.092135504 4291320881
-0.27458176 0.021526309 -0.091107793 4291583795
-0.27408567 0.02312623 -0.090086795 4291911987
-0.27385888 0.024807809 -0.08967182 4291716147
-0.27363288 0.026486687 -0.089258447 4290796594
-0.27367315 0.028257148 -0.089444779 4290334252
-0.27371344 0.030030118 -0.089631371 4290532140
-0.27402025 0.031905677 -0.090418831 4290729006
-0.27459624 0.033893056 -0.091813743 4290860337
-0.27571824 0.036110181 -0.094440758 4291188785
-0.27852342 0.039035976 -0.10086615 4291385647
-0.27998072 0.041459605 -0.10425348 4291517487
-0.28146169 0.043925092 -0.10769586 4291517488
-0.28296679 0.046433393 -0.11119452 4291452977
-0.28389895 0.048718069 -0.11340121 4291125301
-0.2851418 0.051166043 -0.11631075 4291124790
-0.2870152 0.053936701 -0.12064635 4291058994
-0.28892642 0.056766037 -0.12506966 4291059255
-0.28960189 0.059032615 -0.12670195 4290994745
-0.29352447 0.062936172 -0.1356767 4290929464
-0.29590774 0.066138484 -0.14117473 4290929978
-0.29765937 0.069063716 -0.14524677 4290865471
-0.29944211 0.072043806 -0.14939134 4290670664
-0.30161414 0.075273447 -0.15441893 4290479193
-0.29939497 -0.036112104 -0.14801751 4290080840
-0.2987268 -0.034140289 -0.14661886 4290406205
-0.29736158 -0.032181889 -0.14364623 4290405176
-0.29670793 -0.03023978 -0.14227872 4290339637
-0.29571471 -0.028316651 -0.14014368 4290469940
-0.29371706 -0.026444495 -0.1357387 4290403122
-0.29143208 -0.024622763 -0.13068233 4290205744
-0.28984562 -0.022808127 -0.12720215 4290402608
-0.28765333 -0.021061558 -0.12235079 4290796594
-0.28675321 -0.019263048 -0.12041909 4290927409
-0.28493935 -0.017556649 -0.11641967 4290663983
-0.28406641 -0.015797473 -0.11454703 4290335535
-0.28290248 -0.014084111 -0.11201508 4290073389
-0.28234655 -0.012323693 -0.11085809 4290008623
-0.28149942 -0.010608623 -0.10904121 4290140463
-0.28095269 -0.0088688973 -0.10790387 4290271025
-0.28070086 -0.0070962454 -0.10743394 4290467376
-0.27987015 -0.0054157935 -0.10565224 4290730288
-0.27962181 -0.0036551878 -0.10518946 4290729263
-0.27908757 -0.0019475586 -0.10407854 4290796080
-0.27827281 -0.00030065721 -0.10233102 4290796339
-0.27774727 0.0013875477 -0.10123863 4290862132
-0.27722523 0.0030674706 -0.10015354 4290731056
-0.27642858 0.0046796245 -0.098444968 4290730800
-0.27619115 0.0064028003 -0.098004788 4290927408
-0.27540454 0.0079939496 -0.096317731 4291452465
-0.27489746 0.0096391728 -0.095264561 4291912500
-0.27493691 0.011415184 -0.095452331 4291912243
-0.27470428 0.013121504 -0.09502203 4291780147
-0.27447242 0.014824932 -0.094593398 4291714356
-0.2745119 0.016602872 -0.094781362 4291517235
-0.27455148 0.01838332 -0.094969578 4291123248
-0.27405053 0.020000715 -0.093928754 4290926896
-0.27355281 0.021610521 -0.092894748 4290927921
-0.27305827 0.0232128 -0.091867432 4291059763
-0.27256677 0.02480763 -0.09084674 4291060020
-0.27234188 0.026486641 -0.090432383 4290467891
-0.27211767 0.028162993 -0.090019517 4290203180
-0.27215701 0.029933358 -0.09020666 4290401069
-0.27272448 0.031906065 -0.091597147 4290663726
-0.27302939 0.033790108 -0.092390053 4290991406
-0.27413893 0.036003273 -0.095017463 4291188782
-0.27719185 0.039036781 -0.10207707 4291385648
-0.27892125 0.041579675 -0.10612197 4291516975
-0.28068438 0.044174708 -0.11024583 4291254574
-0.28248215 0.046823386 -0.11445095 4291124784
-0.28341556 0.049121436 -0.11668552 4290992946
-0.28466037 0.051584382 -0.11963215 4290928693
-0.28622907 0.054227885 -0.12331988 4290993971
-0.28813779 0.05706986 -0.12778611 4290993717
-0.28881186 0.059345283 -0.12943406 4290863416
-0.29240158 0.063103467 -0.13774556 4290798392
-0.29443818 0.06614098 -0.14251134 4290799162
-0.29583496 0.068887815 -0.14581679 4290734913
-0.29759738 0.071861245 -0.14996007 4290606668
-0.29792398 -0.036117706 -0.1493544 4290081612
-0.29726011 -0.034145717 -0.14795187 4290406720
-0.2959044 -0.032187127 -0.14497061 4290339386
-0.29525492 -0.030244874 -0.1435993 4290339127
-0.29426843 -0.028321559 -0.14145818 4290206772
-0.29295543 -0.02642707 -0.13857073 4290009394
-0.29099968 -0.024584886 -0.1342141 4290206770
-0.28973216 -0.022743769 -0.1314273 4290469940
-0.28752521 -0.020985911 -0.12649307 4290601013
-0.28661871 -0.019175405 -0.12452798 4290796849
-0.28510144 -0.017432494 -0.12116603 4290861615
-0.283914 -0.015687646 -0.1185564 4290729776
-0.28274244 -0.013963467 -0.11598185 4290401072
-0.28218237 -0.01219163 -0.11480486 4290073136
-0.28132954 -0.010465779 -0.11295733 4290072876
-0.28077886 -0.0087149339 -0.11180054 4289941039
-0.27993998 -0.0070152082 -0.10998343 4289745454
-0.27939844 -0.0052848328 -0.10884632 4289877808
-0.27886045 -0.0035632141 -0.10771684 4290008879
-0.27804056 -0.0019001844 -0.10594093 4290140463
-0.27722862 -0.00025072152 -0.10418245 4290337075
-0.27642456 0.0013854052 -0.10244115 4290402608
-0.27562824 0.0030083731 -0.10071678 4290272305
-0.27511451 0.0046777697 -0.099639647 4290665776
-0.27487823 0.0064010941 -0.099198408 4290862129
-0.27409694 0.0079923812 -0.097506545 4290927153
-0.27359307 0.0096377479 -0.096450478 4291255603
-0.27390251 0.01148353 -0.09726093 4291255347
-0.27394116 0.013265008 -0.0974501 4291124787
-0.27370885 0.014973707 -0.097017094 4291124530
-0.27374756 0.016757404 -0.097206481 4291123760
-0.27351603 0.018462947 -0.096775092 4290795568
-0.27301666 0.020082761 -0.095727891 4290401839
-0.27252048 0.021694966 -0.094687484 4290009135
-0.2720274 0.023299607 -0.093653798 4289943857
-0.27153751 0.024896812 -0.092626832 4290205490
-0.27131289 0.026578445 -0.092209883 4290466610
-0.27108908 0.028257361 -0.091794528 4290400560
-0.27112755 0.030030616 -0.091982819 4290532140
-0.27142853 0.031906448 -0.092775628 4290729774
-0.27173048 0.033790629 -0.093571231 4290992432
-0.27283096 0.036003955 -0.096206881 4291189294
-0.27613711 0.039151903 -0.10392654 4291189298
-0.27785817 0.04170014 -0.10799666 4291124274
-0.27990177 0.044425961 -0.11281258 4290927409
-0.28169677 0.047085978 -0.11705772 4290927922
-0.28262842 0.049393054 -0.11931347 4290796851
-0.28387111 0.051866151 -0.12228829 4290796596
-0.28543746 0.054521009 -0.12601152 4290928436
-0.28734359 0.057375725 -0.13052116 4290928437
-0.28801626 0.059660107 -0.13218497 4290797878
-0.29127455 0.063271314 -0.13982172 4290667320
-0.29164606 0.065459237 -0.14079319 4290668092
-0.29301262 0.068182342 -0.14406465 4290604613
-0.29473674 0.071128823 -0.14816436 4290542675
-0.29544443 -0.034148593 -0.14848134 4290341698
-0.29444697 -0.032192383 -0.14629522 4290208572
-0.2938017 -0.030249963 -0.14492013 4290076728
-0.29316103 -0.028318636 -0.14355503 4289748278
-0.29185256 -0.026420677 -0.1406486 4289813299
-0.29023263 -0.024560958 -0.13702206 4290141746
-0.28961685 -0.022678545 -0.13571155 4290338355
-0.28739518 -0.02090922 -0.13069263 4290337843
-0.28648216 -0.01908656 -0.12869342 4290403379
-0.28495479 -0.017332418 -0.12527415 4290468658
-0.28406659 -0.015547374 -0.12332994 4290599729
-0.28257999 -0.013841229 -0.12000191 4290468401
-0.28201583 -0.012057826 -0.11880457 4290204975
-0.28115717 -0.010321028 -0.11692572 4290138413
-0.28030711 -0.0085988902 -0.11506578 4290006317
-0.27975801 -0.0068486342 -0.11390128 4289809707
-0.27892187 -0.0051526157 -0.11207202 4289809709
-0.27809399 -0.0034706397 -0.11026091 4290072108
-0.27698997 -0.0018526525 -0.10780959 4289875756
-0.27731264 1.0645757e-05 -0.1086611 4289875244
-0.27537963 0.0014380305 -0.10428791 4289940776
-0.27458614 0.0030634801 -0.10255279 4289744684
-0.27380025 0.004675894 -0.10083448 4289876523
-0.27383807 0.0064615998 -0.10102494 4290008366
-0.27333084 0.0081198774 -0.099951632 4290008113
-0.27282685 0.0097701978 -0.09888532 4290204721
-0.27313513 0.011622171 -0.099703014 4290270511
-0.27317297 0.013409421 -0.099893637 4290205487
-0.27294025 0.015123427 -0.099456273 4290270511
-0.27297816 0.016912894 -0.09964712 4290205487
-0.27274621 0.018623738 -0.099211425 4290139952
-0.27224675 0.020248275 -0.098154061 4290204976
-0.27175051 0.021865139 -0.097103655 4290139437
-0.27099317 0.023386717 -0.095445924 4290073645
-0.27050477 0.024986271 -0.094412647 4290139183
-0.27054241 0.026762895 -0.094602123 4290532399
-0.27005702 0.028352011 -0.093575172 4290663214
-0.27009466 0.030128159 -0.093764611 4290729004
-0.27065563 0.032107878 -0.095172197 4290795310
-0.2709564 0.033998396 -0.095974833 4290795822
