# .PCD v0.7 - Point Cloud Data file format
VERSION 0.7
FIELDS x y z rgba
SIZE 4 4 4 4
TYPE F F F U
COUNT 1 1 1 1
WIDTH 1001
HEIGHT 1
VIEWPOINT 0 0 0 1 0 0 0
POINTS 1001
DATA ascii
-0.30704507 0.048876137 -0.080577336 4293353778
-0.30677816 0.050601482 -0.080150217 4293682228
-0.30651218 0.052323941 -0.079724692 4293813815
-0.30624712 0.054043576 -0.079300754 4293816123
-0.30630851 0.055901505 -0.079478867 4293882174
-0.30636999 0.057762131 -0.079657249 4293882430
-0.30545756 0.059185568 -0.078038618 4293948993
-0.30682006 0.061641827 -0.080618002 4294014271
-0.30820018 0.064132392 -0.083230823 4293752386
-0.3102726 0.066980623 -0.087122753 4293752899
-0.31101459 0.069219075 -0.088559359 4293818435
-0.31349027 0.072333351 -0.093198381 4293752898
-0.31495845 0.074984483 -0.095978007 4293425476
-0.31608877 0.07748986 -0.098134406 4292835655
-0.31687048 0.0798347 -0.09964741 4292181067
-0.31874904 0.082779594 -0.10318816 4289889109
-0.32103232 0.085979357 -0.1074783 4289430874
-0.32184854 0.088414066 -0.10905764 4290942056
-0.33113453 -0.01408462 -0.12648818 4291593821
-0.33036754 -0.012151088 -0.12514165 4291457087
-0.33001867 -0.010187986 -0.12456856 4291391038
-0.3296712 -0.0082291709 -0.12399781 4291521851
-0.32810009 -0.0064172 -0.12116173 4292045369
-0.32695267 -0.0045781122 -0.11910915 4292570427
-0.32463071 -0.0029147917 -0.1148808 4293159991
-0.32197276 -0.0013385045 -0.11002881 4293356596
-0.32013163 0.00031635098 -0.10668827 4293553466
-0.31832215 0.0019455237 -0.1034053 4293421626
-0.31690922 0.0036114373 -0.10085601 4292633654
-0.31587756 0.0053218561 -0.099012583 4292436274
-0.31485641 0.0070175901 -0.097188063 4292371765
-0.31455928 0.0088384226 -0.096705303 4292764982
-0.31390694 0.010582945 -0.09556368 4292895795
-0.31290618 0.012243262 -0.093775451 4292698673
-0.31261548 0.014045035 -0.093303964 4292763187
-0.31197637 0.015762784 -0.092185766 4293092149
-0.31168887 0.017555041 -0.091719769 4293026613
-0.31140244 0.019343998 -0.09125559 4292895286
-0.31077176 0.021040775 -0.090152286 4293027127
-0.31014532 0.022729032 -0.089056507 4293092405
-0.31020609 0.02459681 -0.089236438 4292960310
-0.30958372 0.026273135 -0.088147782 4293157689
-0.3089655 0.02794111 -0.087066412 4293092152
-0.30868825 0.029702527 -0.08661817 4292895027
-0.30807611 0.031356491 -0.085547574 4293092146
-0.30746809 0.033002328 -0.084484212 4293288499
-0.30686405 0.034640145 -0.083427981 4293222194
-0.30593541 0.036159113 -0.081767902 4293090608
-0.30534127 0.03777891 -0.080729291 4293156145
-0.30540124 0.039622121 -0.080906861 4293287473
-0.30546129 0.041467972 -0.081084684 4293287474
-0.30552143 0.043316461 -0.08126276 4293222196
-0.30525571 0.045042928 -0.080834679 4293156659
-0.30531591 0.046893716 -0.081012979 4292960050
-0.30505118 0.048616953 -0.080586433 4293091890
-0.30478731 0.050337367 -0.080161497 4293354292
-0.30452442 0.052054908 -0.079738237 4293420599
-0.30394119 0.053632326 -0.07871823 4293486649
-0.30400133 0.055481568 -0.078896388 4293552699
-0.3024697 0.056624267 -0.076108918 4293552699
-0.30284604 0.058608044 -0.076875895 4293554495
-0.30322358 0.060600743 -0.077645533 4293816638
-0.30521098 0.06336268 -0.081416354 4293752127
-0.30723688 0.066180691 -0.085260317 4293686850
-0.30829555 0.068562277 -0.087302007 4293753154
-0.31106526 0.071819909 -0.092535712 4293621827
-0.3128573 0.07463187 -0.095947549 4293425475
-0.31432527 0.077310115 -0.098755993 4292901189
-0.31509873 0.079650596 -0.10026943 4292246346
-0.3162365 0.082202129 -0.10246341 4290216278
-0.31848162 0.085379943 -0.10672531 4288838742
-0.31928393 0.087800339 -0.10829501 4289889371
-0.3284083 -0.014189935 -0.12552899 4291590217
-0.32806253 -0.012229323 -0.12495692 4291456830
-0.32771808 -0.01027301 -0.12438715 4291456063
-0.32737499 -0.0083209816 -0.12381972 4291848508
-0.32662898 -0.0064204973 -0.12249902 4292308282
-0.32429698 -0.0047312896 -0.1182127 4292570680
-0.32240179 -0.0030227238 -0.11474171 4293028149
-0.31977922 -0.0014504825 -0.10990921 4293159478
-0.31833553 0.00025666348 -0.10728015 4293357882
-0.31654355 0.0018836936 -0.10399865 4293355575
-0.31514412 0.0035473495 -0.10145055 4292962102
-0.31376374 0.0051911757 -0.098937221 4292369713
-0.31275573 0.0068820091 -0.097120099 4292239409
-0.31246215 0.0086971056 -0.096639983 4292501811
-0.31181803 0.010436412 -0.095503256 4292698674
-0.31117824 0.012166793 -0.094374359 4292764720
-0.31054285 0.013888258 -0.09325324 4292763441
-0.31025669 0.01568114 -0.092786111 4292960048
-0.30997157 0.017470717 -0.092320815 4292960304
-0.30900282 0.019085681 -0.090574108 4292896052
-0.30906254 0.020951403 -0.090754718 4292962104
-0.30844179 0.022637319 -0.089659601 4293027123
-0.30816281 0.02440835 -0.089205034 4293090608
-0.30754817 0.02607994 -0.088120855 4293025077
-0.30693769 0.027743287 -0.087044053 4292894004
-0.30633125 0.029398432 -0.08597447 4292960305
-0.30572876 0.031045459 -0.084912024 4293288243
-0.30513027 0.032684475 -0.083856754 4293352754
-0.30453575 0.034315586 -0.082808509 4293220912
-0.3036218 0.035828955 -0.08116024 4293023790
-0.30303696 0.037442192 -0.080129415 4293089582
-0.30341712 0.039391782 -0.080910705 4293286959
-0.3031545 0.041113909 -0.080484852 4293287472
-0.30321339 0.042953685 -0.080662966 4293288243
-0.30295172 0.04467262 -0.080238767 4293157942
-0.3030107 0.046514731 -0.080417097 4293027126
-0.30306977 0.048359424 -0.080595672 4293158198
-0.30280894 0.050074909 -0.080172941 4293355576
-0.30254906 0.05178757 -0.079751842 4293486904
-0.30197299 0.053361014 -0.078735933 4293420858
-0.30108649 0.054789081 -0.077135637 4293486652
-0.3005197 0.056345966 -0.076136418 4293421372
-0.30057842 0.05818028 -0.076313987 4293487422
-0.30063722 0.060017206 -0.076491825 4293684541
-0.30258647 0.062756233 -0.080228664 4293686333
-0.30424947 0.06539353 -0.083427876 4293620286
-0.30593932 0.068076007 -0.08667887 4293555007
-0.30866373 0.071311489 -0.091879725 4293292865
-0.31111443 0.074458145 -0.096566834 4293032003
-0.31256735 0.077130951 -0.09937565 4292704324
-0.31333265 0.079467103 -0.10088957 4292245577
-0.31481528 0.082206145 -0.10375624 4291068240
-0.31631806 0.08498507 -0.10666192 4289431636
-0.31747475 0.087600097 -0.10891604 4289367130
-0.32611531 -0.014260827 -0.12534241 4291326019
-0.32577392 -0.012306991 -0.12477368 4291456574
-0.32543382 -0.010357425 -0.12420726 4291587391
-0.325095 -0.0084120911 -0.12364311 4291914813
-0.32435885 -0.0065179653 -0.12232874 4292373307
-0.3220582 -0.004833512 -0.11806033 4292700729
-0.32018825 -0.0031299274 -0.11460374 4292766522
-0.31760067 -0.0015616856 -0.10979062 4292832058
-0.31617597 0.00014049729 -0.10717233 4292831804
-0.31440756 0.0017631204 -0.10390387 4293157944
-0.3130264 0.0034220924 -0.10136596 4293159223
-0.31166393 0.0050613685 -0.098862506 4292633138
-0.31066886 0.0067473375 -0.097052746 4292567088
-0.31037885 0.0085567338 -0.096575268 4292828977
-0.30974281 0.010290855 -0.09544342 4292827696
-0.30911115 0.012016112 -0.094319388 4292827179
-0.3088263 0.013809608 -0.093851134 4292630572
-0.30854252 0.015599772 -0.093384691 4292697390
-0.3079192 0.017303947 -0.09227562 4292631600
-0.30730006 0.01899953 -0.091174118 4292697136
-0.30735874 0.020862348 -0.091355331 4292828722
-0.30674365 0.022545937 -0.090260983 4292960048
-0.30613261 0.024221133 -0.089173973 4293092146
-0.30552572 0.025888037 -0.088094361 4293026356
-0.30492279 0.027546745 -0.087022021 4292960306
-0.30432388 0.029197311 -0.085956804 4293091376
-0.30372891 0.030839818 -0.084898777 4293354036
-0.30313784 0.032474387 -0.083847813 4293615925
-0.30255061 0.034101076 -0.082803786 4293550129
-0.30133009 0.035501957 -0.080558605 4293353007
-0.30075437 0.037108682 -0.079535447 4293221422
-0.30081189 0.038934637 -0.079713069 4293156142
-0.30086949 0.040763222 -0.079890952 4293156911
-0.30092716 0.042594373 -0.080069073 4293222963
-0.30098492 0.044428151 -0.080247462 4293157686
-0.30104274 0.046264526 -0.080426104 4293223991
-0.30078498 0.047975443 -0.080005646 4293354807
-0.30084288 0.049814146 -0.080184512 4293486392
-0.30058599 0.051521935 -0.079765588 4293617721
-0.29939395 0.052821491 -0.077570222 4293552699
-0.29914153 0.054516409 -0.077159233 4293618749
-0.29858166 0.056069393 -0.076163903 4293619262
-0.29863927 0.05789813 -0.076341785 4293750335
-0.29838946 0.059584968 -0.075935416 4293947197
-0.30030727 0.062307093 -0.079650216 4293816637
-0.30194324 0.06492839 -0.082830429 4293751102
-0.3039293 0.067755446 -0.086677745 4293423166
-0.30661771 0.070976377 -0.091862544 4293095487
-0.30937707 0.074285038 -0.097184308 4292834368
-0.31081504 0.076952398 -0.099993467 4292704067
-0.31157228 0.079284228 -0.1015079 4292441926
-0.3130396 0.082017615 -0.10437479 4291788620
-0.31416887 0.084592894 -0.10659908 4290679386
-0.32457829 -0.016252847 -0.12648925 4291329619
-0.32383862 -0.014331203 -0.1251574 4291193920
-0.3235015 -0.012384105 -0.12459195 4291390525
-0.32316568 -0.010441224 -0.12402885 4291521084
-0.32322711 -0.0084591527 -0.1242226 4291847993
-0.32249787 -0.0065680905 -0.1229094 4292175161
-0.32021999 -0.0048859324 -0.11864332 4292569656
-0.31836846 -0.0031847171 -0.11518867 4292832059
-0.31543696 -0.0016721219 -0.10967302 4292832057
-0.314031 2.5156991e-05 -0.10706549 4292831806
-0.31192869 0.001584988 -0.10312843 4293224506
-0.31092274 0.0032976873 -0.10128215 4293291321
-0.309578 0.0049324422 -0.098788545 4293093685
-0.30859575 0.0066135731 -0.096986093 4293289524
-0.30796573 0.0083488263 -0.095855445 4293419569
-0.3076812 0.010146262 -0.095384203 4293222192
-0.30739769 0.011940395 -0.094914816 4293155374
-0.30677605 0.013654393 -0.093799241 4293025331
-0.30649558 0.015439039 -0.093335308 4293092918
-0.30588013 0.017138286 -0.092230938 4293027382
-0.30526876 0.018828992 -0.091134101 4292895284
-0.30532628 0.02068585 -0.091315605 4292698163
-0.30471885 0.022364646 -0.090225771 4292567347
-0.30411553 0.02403515 -0.089143366 4292633910
-0.30351615 0.025697382 -0.088068239 4292764725
-0.30292073 0.027351474 -0.087000266 4292896053
-0.30232927 0.028997492 -0.085939504 4292896052
-0.30174169 0.030635521 -0.084885806 4293158454
-0.30115792 0.032265618 -0.083839051 4293485879
-0.300578 0.033887915 -0.082799323 4293682741
-0.29937291 0.03528586 -0.080562107 4293682483
-0.29911637 0.036998671 -0.080140784 4293484336
-0.29886067 0.038708672 -0.079721026 4293090093
-0.29891717 0.040531598 -0.079899199 4292827950
-0.29897371 0.042357095 -0.080077641 4292959536
-0.29903036 0.044185206 -0.080256328 4293025586
-0.29908705 0.046015933 -0.080435283 4293288755
-0.29883224 0.047721967 -0.080016993 4293419827
-0.29888904 0.049554992 -0.080196165 4293485364
-0.29832527 0.051125705 -0.079185143 4293550645
-0.29776514 0.052689146 -0.078180745 4293551928
-0.29751471 0.054381739 -0.077770278 4293553211
-0.29695988 0.055932902 -0.076775506 4293619515
-0.29701644 0.057758901 -0.076953977 4293815612
-0.29676858 0.059443481 -0.076548107 4293946940
-0.29804933 0.061862186 -0.079077363 4293751103
-0.29965872 0.064467676 -0.082238853 4293816639
-0.30257413 0.067758493 -0.087910406 4293685825
-0.30458477 0.070643455 -0.091845714 4293489474
-0.3076452 0.07411246 -0.097799927 4293292865
-0.30872589 0.076593429 -0.099951275 4292965953
-0.30981746 0.079101957 -0.10212433 4292572995
-0.31126961 0.081829727 -0.10499156 4292115019
-0.31203386 0.084203362 -0.10653693 4291530082
-0.32230791 -0.016316211 -0.12629938 4291260741
-0.32157803 -0.01440107 -0.12497394 4291062077
-0.32124513 -0.012460664 -0.12441178 4291126842
-0.32091352 -0.010524466 -0.1238519 4291454519
-0.32097369 -0.0085492879 -0.12404588 4291782198
-0.32025412 -0.0066644787 -0.12273899 4292241464
-0.3195397 -0.004790307 -0.12144161 4292438841
-0.31655481 -0.0032393122 -0.11577165 4292766007
-0.31328788 -0.0017817925 -0.10955645 4292831284
-0.31190047 -8.9419475e-05 -0.1069595 4292896310
-0.3098259 0.0014664462 -0.10303774 4293420853
-0.30848524 0.0031137627 -0.10052883 4293355059
-0.30750582 0.0048043439 -0.098715253 4293420593
-0.30653626 0.0064806952 -0.096920058 4293681714
-0.30625305 0.0082787694 -0.096447706 4293746734
-0.30563301 0.010002638 -0.095325582 4293483822
-0.3053529 0.011791218 -0.094858713 4293418545
-0.30507377 0.013576495 -0.094393663 4293289527
-0.30479568 0.01535847 -0.093930408 4293420599
-0.30352363 0.016892351 -0.091548808 4293157430
-0.30325046 0.018659595 -0.091094464 4292829235
-0.30297831 0.020423638 -0.090641931 4292369968
-0.30238056 0.022095263 -0.089560494 4292238899
-0.30211127 0.023850348 -0.089113139 4292239157
-0.30151936 0.025507959 -0.088042423 4292369972
-0.30093139 0.027157471 -0.086978912 4292698164
-0.3003473 0.028798951 -0.085922495 4292764212
-0.29976696 0.030432509 -0.08487305 4292895798
-0.29919049 0.032058213 -0.083830617 4293158454
-0.29861775 0.033676144 -0.082795084 4293420853
-0.29742792 0.035071142 -0.080565825 4293683253
-0.29717433 0.036779035 -0.080146663 4293747506
-0.29692161 0.0384841 -0.07972914 4293221166
-0.29697695 0.040301416 -0.079907626 4292630574
-0.29703242 0.042121314 -0.08008635 4292565037
-0.29708794 0.043943819 -0.080265358 4292828207
-0.29714355 0.045768909 -0.080444604 4293091377
-0.29689163 0.047470096 -0.080028467 4293288241
-0.2966406 0.049168527 -0.079613909 4293484594
-0.29669628 0.050995678 -0.079793371 4293550130
-0.29614118 0.052557234 -0.078789495 4293616181
-0.29589272 0.054247525 -0.078379586 4293486136
-0.29564518 0.055935141 -0.07797125 4293487417
-0.29570082 0.057761308 -0.078150608 4293749818
-0.29515257 0.059302431 -0.077159099 4293815869
-0.2967256 0.061864913 -0.080281369 4293553470
-0.29739556 0.06401132 -0.081653066 4293422653
-0.29994711 0.067120455 -0.086676031 4293553982
-0.30224106 0.070146471 -0.09120106 4293620033
-0.30525097 0.073591299 -0.097117469 4293554754
-0.30631354 0.076057591 -0.099255748 4293358401
-0.3073867 0.078551196 -0.10141554 4292966468
-0.30915925 0.081451826 -0.10493439 4292508489
-0.30991289 0.083816431 -0.10647541 4292051794
-0.32044524 -0.016349753 -0.12687172 4290997311
-0.31972232 -0.01443777 -0.12554754 4291061308
-0.31939232 -0.012500631 -0.1249863 4291192634
-0.31945139 -0.010528049 -0.12518097 4291520565
-0.31951055 -0.0085527459 -0.1253759 4291717173
-0.31879514 -0.0066677695 -0.12406521 4292241464
-0.31808493 -0.0047934302 -0.12276407 4292503865
-0.31511939 -0.0032422433 -0.11707653 4292699956
-0.31151292 -0.0018377111 -0.11014025 4292896050
-0.31013903 -0.00014772319 -0.10754471 4292961074
-0.30773714 0.0013486972 -0.10294791 4293353777
-0.30675715 0.0030513788 -0.10111672 4293485359
-0.30544719 0.0046771332 -0.09864261 4293615664
-0.30449012 0.006348697 -0.096854612 4293614897
-0.30387592 0.0080736177 -0.095733643 4293616179
-0.30359814 0.009859954 -0.095267497 4293484082
-0.30299005 0.011570005 -0.094157778 4293419572
-0.30271524 0.013347013 -0.093697026 4293486903
-0.30178601 0.014964359 -0.091960847 4293420340
-0.30118999 0.016648827 -0.090873525 4293091634
-0.30124518 0.018491281 -0.091055349 4292500785
-0.30065301 0.020164009 -0.089974985 4292041518
-0.30038595 0.021916907 -0.08952827 4292041520
-0.30011979 0.023666762 -0.089083239 4292107826
-0.2995353 0.02531974 -0.088017002 4292369713
-0.29895467 0.026964687 -0.086957879 4292565807
-0.29837778 0.028601689 -0.085905723 4292696623
-0.29811817 0.030331543 -0.085472547 4292828721
-0.29754689 0.031955112 -0.084430687 4292961075
-0.29697934 0.033570964 -0.083395764 4293158195
-0.29641545 0.035179116 -0.082367644 4293486387
-0.2955493 0.036670066 -0.080748573 4293748533
-0.29529858 0.038372774 -0.080331556 4293419572
-0.29535294 0.040187363 -0.080510624 4292893745
-0.29510307 0.041887015 -0.080095157 4292565294
-0.29515749 0.043703921 -0.080274448 4292630829
-0.295212 0.045523413 -0.080453999 4292959023
-0.29526657 0.047345519 -0.080633812 4293222192
-0.29471487 0.048913445 -0.079627663 4293419313
-0.2950722 0.050866064 -0.080399908 4293485108
-0.29452208 0.05242572 -0.079396538 4293550645
-0.2945767 0.054249622 -0.079576515 4293551926
-0.29403004 0.055799067 -0.078579411 4293617205
-0.29408467 0.057622511 -0.078759342 4293683769
-0.2938399 0.059304968 -0.07835304 4293750844
-0.29509839 0.061719321 -0.080891393 4293488448
-0.2957612 0.063862056 -0.08226373 4293422143
-0.29828694 0.066964485 -0.087287433 4293356606
-0.29991972 0.069654278 -0.090562813 4293422655
-0.3028799 0.07307519 -0.09644188 4293554752
-0.30425584 0.075704508 -0.099216737 4293488703
-0.30497971 0.078005843 -0.10071392 4293227072
-0.30706275 0.081076436 -0.10487785 4292834628
-0.30780581 0.083432063 -0.10641444 4292376393
-0.30855399 0.085806318 -0.10796163 4291855958
-0.31858906 -0.016383177 -0.12744227 4290865983
-0.31787303 -0.014474333 -0.1261193 4291061308
-0.317931 -0.012504367 -0.12631464 4291323706
-0.31760389 -0.01057124 -0.1257543 4291520822
-0.31766191 -0.0085992701 -0.12594983 4291651639
-0.31657204 -0.0067634839 -0.1238917 4292175159
-0.31587112 -0.0048952568 -0.12259664 4292437303
-0.31257877 -0.0033990426 -0.11621133 4292633395
-0.30938795 -0.0019462549 -0.11002308 4292961843
-0.30803216 -0.00026113112 -0.10743801 4293091632
-0.30600524 0.0012889272 -0.10353302 4293222448
-0.30469492 0.0029294309 -0.10103515 4293484847
-0.3034021 0.0045507704 -0.098570697 4293680945
-0.30212641 0.0061532673 -0.096139029 4293484337
-0.30152208 0.0078704869 -0.095026806 4293354293
-0.30124855 0.0096485037 -0.094564997 4293484596
-0.30097604 0.011423265 -0.094105028 4293550902
-0.29973307 0.0129704 -0.091735147 4293419830
-0.29978713 0.014807799 -0.091917343 4293157938
-0.29919863 0.016487472 -0.090834551 4293026353
-0.29925269 0.018324055 -0.091016658 4292238128
-0.29866791 0.01999205 -0.089940749 4291778862
-0.298087 0.021651872 -0.088872112 4291976240
-0.29814097 0.023484344 -0.089053795 4292238897
-0.2972497 0.025039868 -0.087373003 4292434992
-0.29699033 0.026773168 -0.086937107 4292499501
-0.29642069 0.028405694 -0.08588931 4292695595
-0.29616407 0.030130474 -0.085458361 4292827949
-0.29590836 0.031852368 -0.085029103 4292960561
-0.29503939 0.033361182 -0.08339002 4293026610
-0.2947872 0.035072193 -0.082967207 4293223473
-0.29392916 0.036561437 -0.081348717 4293420596
-0.29368046 0.038261771 -0.080932282 4293486136
-0.29343262 0.039959375 -0.080517441 4293354550
-0.29318565 0.041654192 -0.080104128 4293025073
-0.29323897 0.04346554 -0.080283724 4292630318
-0.29329237 0.045279484 -0.080463581 4292761902
-0.29304621 0.046971079 -0.08005175 4293090861
-0.29309964 0.048787329 -0.080231838 4293289009
-0.29345298 0.050736826 -0.081004694 4293485106
-0.29290789 0.052294616 -0.080001913 4293419311
-0.29296148 0.054115832 -0.0801825 4293682996
-0.29271701 0.05580131 -0.079773657 4293813300
-0.29277065 0.057624895 -0.079954475 4293617207
-0.29252702 0.059307508 -0.079547197 4293683514
-0.29347599 0.061574183 -0.081499703 4293750590
-0.29443404 0.063864894 -0.083470896 4293619262
-0.29663181 0.066809036 -0.087897003 4293421629
-0.29762042 0.069166809 -0.089930892 4293356607
-0.30053169 0.07256414 -0.095773079 4293291327
-0.30221131 0.075353719 -0.09917812 4293226047
-0.30259615 0.077465884 -0.10001941 4293029694
-0.3046442 0.080516025 -0.10415674 4292768320
-0.30605173 0.083242893 -0.10702628 4292506948
-0.30679172 0.085612714 -0.10857383 4292114761
-0.30857539 0.088611044 -0.11219124 4291920723
-0.3125352 0.092943504 -0.12012561 4291724894
-0.31823039 -0.018281223 -0.13088088 4290868557
-0.31751069 -0.016357884 -0.12953912 4290931519
-0.31641248 -0.014478249 -0.12744692 4291061563
-0.31608698 -0.012544156 -0.12688522 4291388984
-0.31576267 -0.010614247 -0.12632576 4291520055
-0.31581962 -0.0086456621 -0.12652186 4291650872
-0.31474042 -0.0068127252 -0.12446526 4292043830
-0.31367272 -0.0049963864 -0.12243067 4292305974
-0.31042504 -0.0035036306 -0.11607099 4292698675
-0.30727726 -0.0020540485 -0.10990692 4292895796
-0.30559415 -0.00042852 -0.10664714 4293091890
-0.30360094 0.0011155535 -0.10277057 4293288497
-0.30231223 0.0027491876 -0.10029116 4293484849
-0.30104059 0.0043638237 -0.09784472 4293550900
-0.30011123 0.0060234442 -0.096077122 4293289010
-0.29951456 0.0077355956 -0.094969638 4293289012
-0.29924425 0.0095081544 -0.094510317 4293419313
-0.29865345 0.011205683 -0.093413882 4293550130
-0.29774809 0.012820686 -0.091691829 4293156916
-0.29780105 0.014652251 -0.091874294 4292961588
-0.2972199 0.016327111 -0.090795971 4292895539
-0.29695722 0.018075697 -0.090350665 4292106031
-0.29669544 0.019821208 -0.089906983 4291647792
-0.29612184 0.021476382 -0.08884275 4291910961
-0.29586279 0.023213169 -0.088404134 4292238384
-0.29529473 0.024854682 -0.087350324 4292433968
-0.29534745 0.026677789 -0.087531932 4292695853
-0.29478297 0.028308146 -0.086484745 4292892459
-0.29452848 0.030030472 -0.086054459 4293024045
-0.29396942 0.031647567 -0.085017458 4293025583
-0.29341403 0.033256993 -0.083987296 4293026353
-0.29346654 0.035072733 -0.084168173 4292960305
-0.2923139 0.036453143 -0.081947155 4292960562
-0.29206723 0.038151156 -0.081531331 4293158199
-0.29182139 0.039846372 -0.081117041 4293355833
-0.29157636 0.041538872 -0.080704279 4293289783
-0.29162866 0.043347549 -0.080884464 4293025075
-0.29168105 0.045158789 -0.081064902 4292892462
-0.29143688 0.04684807 -0.080653697 4293155629
-0.29178602 0.048789021 -0.081426561 4293287215
-0.29183862 0.050608024 -0.081607774 4293551668
-0.29159445 0.052296571 -0.081196494 4293551409
-0.29164711 0.054117948 -0.081377946 4293682998
-0.29169986 0.05594191 -0.081559651 4293617976
-0.29175267 0.057768494 -0.081741616 4293682233
-0.29121393 0.059310064 -0.080741525 4293749305
-0.2921558 0.061576903 -0.082700521 4293619258
-0.29280648 0.063716106 -0.084078178 4293422397
-0.29528868 0.066812076 -0.089118697 4293422654
-0.29595989 0.069007486 -0.090539292 4293226304
-0.29852313 0.072227314 -0.095745362 4293094463
-0.30017993 0.075005211 -0.099140026 4292963389
-0.30055919 0.077110074 -0.099979416 4292768061
-0.30291054 0.080333114 -0.10476649 4292571456
-0.30396751 0.082862355 -0.1069642 4292309570
-0.30402443 0.084831931 -0.10716043 4292113478
-0.30645621 0.088208348 -0.11211305 4291983689
-0.31071854 0.09273304 -0.12073486 4291788626
-0.31221819 0.095654942 -0.12382477 4291663975
-0.31675848 -0.018285455 -0.13221876 4290867269
-0.31604305 -0.016361948 -0.13087314 4290996796
-0.31533286 -0.014449482 -0.12953748 4291061048
-0.3146278 -0.012547912 -0.12821159 4291388984
-0.3139278 -0.010657123 -0.12689535 4291650871
-0.31360757 -0.0087345205 -0.12633912 4291715895
-0.31254286 -0.0069073988 -0.12429164 4291978549
-0.31148949 -0.0050968085 -0.12226599 4292175158
-0.31008384 -0.0033537725 -0.11953393 4292567857
-0.30483553 -0.0022130182 -0.10910008 4292698162
-0.30318052 -0.00059421262 -0.10586444 4292961333
-0.30155322 0.0010001635 -0.10268314 4293287986
-0.30028141 0.0026292882 -0.10021333 4293354290
-0.29902643 0.0042395117 -0.097776406 4293289268
-0.29810908 0.005894464 -0.096015818 4293158195
-0.29751989 0.0076015568 -0.094912969 4293026867
-0.29725283 0.0093686916 -0.094456173 4293156910
-0.29603812 0.01091936 -0.092097044 4293287726
-0.29577574 0.012671936 -0.091648921 4293027124
-0.29582757 0.01449772 -0.091831684 4292962102
-0.29525375 0.016167806 -0.090757899 4292764212
-0.29530558 0.017992849 -0.090940565 4292040496
-0.29504594 0.019735817 -0.090497524 4291582513
-0.29447761 0.021388752 -0.089433953 4291780145
-0.29422069 0.023123037 -0.088995971 4292238383
-0.29365787 0.024762349 -0.087942831 4292500271
-0.29370955 0.026582701 -0.088125035 4292761903
-0.2934553 0.028308112 -0.087692007 4293024046
-0.29320198 0.030030601 -0.087260664 4293154605
-0.29264623 0.031647809 -0.086220689 4293154859
-0.29209405 0.033257373 -0.085187599 4293090604
-0.29214564 0.035073273 -0.085369341 4293025840
-0.29129821 0.036562778 -0.083741233 4292894514
-0.29075485 0.038151965 -0.082724802 4292894771
-0.29051015 0.039847344 -0.082309492 4293158454
-0.29026625 0.041539978 -0.081895724 4293223991
-0.29002324 0.043229904 -0.081483573 4293354806
-0.29007459 0.045038451 -0.081664599 4293287987
-0.29012603 0.046849601 -0.08184588 4293221424
-0.29017752 0.048663314 -0.08202742 4293222962
-0.29052383 0.050609853 -0.082803555 4293418546
-0.29028079 0.052298535 -0.08239127 4293749045
-0.29033253 0.054120045 -0.082573578 4293879092
-0.29038432 0.055944167 -0.082756154 4293684022
-0.29043621 0.057770893 -0.082939006 4293551416
-0.29019392 0.059456211 -0.082528152 4293487162
-0.29113156 0.061727423 -0.084499493 4293553981
-0.29148099 0.063718975 -0.085283823 4293488447
-0.29333663 0.066499576 -0.089111023 4293357120
-0.29399854 0.068687193 -0.090527959 4293226049
-0.29590243 0.071556784 -0.094455332 4293094976
-0.29752636 0.07431142 -0.097818501 4292898365
-0.29853529 0.076756589 -0.099939823 4292767548
-0.30052787 0.079780042 -0.10405104 4292505150
-0.30091 0.081915818 -0.10490692 4292177986
-0.3019526 0.084447578 -0.10709929 4291982406
-0.30401295 0.087607108 -0.11135174 4292048711
-0.30890784 0.092523322 -0.12134223 4291853644
-0.31003314 0.095218673 -0.12370685 4291595869
-0.3163906 -0.020201832 -0.13569985 4290739282
-0.31567156 -0.01826361 -0.13433506 4290932032
-0.31495777 -0.016336568 -0.13298039 4291061560
-0.31424916 -0.014420612 -0.13163573 4291061560
-0.31316841 -0.012551668 -0.12953818 4291257912
-0.31209925 -0.010699852 -0.12746321 4291585336
-0.31178179 -0.0087804217 -0.12690781 4291716151
-0.31072763 -0.0069561214 -0.12486192 4291781942
-0.30932131 -0.0051965518 -0.12210274 4291978548
-0.30793461 -0.0034587043 -0.11938215 4292304943
-0.30241835 -0.0023703731 -0.10830159 4292436786
-0.30079094 -0.00075824431 -0.10508981 4292698675
-0.29919067 0.0008296934 -0.10193165 4292959538
-0.29793978 0.0024519935 -0.099479944 4293157424
-0.29670537 0.0040556225 -0.097060688 4293026610
-0.29611975 0.0057663 -0.095955044 4293026353
-0.29553807 0.0074684252 -0.094856925 4292566577
-0.29496023 0.0091620442 -0.093766183 4292827950
-0.29438618 0.010847234 -0.092682719 4293026354
-0.29381591 0.012524149 -0.09160655 4293027382
-0.29386666 0.014344181 -0.091789573 4293026613
-0.29360828 0.016088026 -0.091345519 4292566578
-0.29335079 0.01782885 -0.0909032 4292040752
-0.2934016 0.019650707 -0.091086403 4291581743
-0.29283845 0.0213014 -0.09002348 4291648816
-0.29288927 0.023122566 -0.090206616 4291976239
-0.29232976 0.024762036 -0.089150473 4292303920
-0.29238051 0.026582506 -0.089333542 4292631343
-0.29182455 0.028210878 -0.08828406 4292958766
-0.29157323 0.029930925 -0.087853268 4293089324
-0.29132283 0.031648073 -0.087424122 4292957225
-0.29077393 0.033257779 -0.086388074 4292891945
-0.29082456 0.035073813 -0.086570695 4292893741
-0.28998244 0.036563456 -0.084937766 4292763955
-0.2891483 0.038041655 -0.083320461 4292632115
-0.2891987 0.039848283 -0.083502129 4292828723
-0.28837225 0.041309331 -0.081899613 4293225018
-0.28813201 0.042994484 -0.081489548 4293551926
-0.28847292 0.044918511 -0.082262538 4293485367
-0.28823262 0.046603166 -0.081852444 4293354294
-0.28857383 0.048537984 -0.082626522 4293288499
-0.28862441 0.050351605 -0.082808897 4293091892
-0.28867507 0.052167829 -0.082991533 4293418804
-0.28901771 0.054122142 -0.083769411 4293617718
-0.28906858 0.055946425 -0.083952866 4293551667
-0.28911951 0.057773292 -0.084136583 4293486134
-0.28917053 0.059602812 -0.084320553 4293420856
-0.28980887 0.061730128 -0.085702576 4293290813
-0.29015526 0.063721828 -0.086489685 4293160254
-0.29139671 0.066189043 -0.089103542 4293291327
-0.29204941 0.068368882 -0.090516895 4293357121
-0.29362077 0.07106033 -0.093806244 4293226048
-0.29521748 0.073797844 -0.097148851 4292963646
-0.29620934 0.076228768 -0.099257521 4292701500
-0.29752904 0.078867689 -0.10203687 4292504892
-0.29822239 0.081170514 -0.10353774 4292177728
-0.29956853 0.083873615 -0.10637324 4291916356
-0.30159384 0.087011844 -0.11059819 4291917382
-0.30675352 0.092101291 -0.12123308 4291918409
-0.30786285 0.094785392 -0.12359001 4291461721
-0.31529787 -0.020183502 -0.13783328 4290999109
-0.31458047 -0.018241685 -0.13645928 4291062845
-0.31348702 -0.016340666 -0.13431723 4290996022
-0.31316128 -0.014391664 -0.13374166 4290996023
-0.31170878 -0.012555392 -0.13086496 4291192119
-0.31027687 -0.010742428 -0.12802921 4291388471
-0.30959526 -0.0088683283 -0.12672503 4291584822
-0.30855528 -0.0070498125 -0.1246882 4291650357
-0.30716804 -0.0052955723 -0.12194082 4291978548
-0.30580005 -0.0035629037 -0.11923169 4292174129
-0.30035889 -0.0024753155 -0.10819333 4292240948
-0.29875317 -0.00086755073 -0.1049941 4292436275
-0.29717407 0.00071618339 -0.10184809 4292763443
-0.29593962 0.0023340632 -0.09940587 4292960049
-0.29503697 0.0039933496 -0.097641647 4293026355
-0.29414323 0.0056390059 -0.095894925 4292829233
-0.29356891 0.007336128 -0.094801411 4292238386
-0.29268965 0.0089573711 -0.093083084 4292501041
-0.29243156 0.010705204 -0.092636317 4292960820
-0.2921744 0.01244993 -0.092191257 4293223733
-0.29191816 0.014191632 -0.091747932 4293026611
-0.29196787 0.016008509 -0.091931492 4292501809
-0.29171249 0.017746793 -0.09148974 4292237613
-0.29176226 0.019565875 -0.091673523 4291778348
-0.29120439 0.021214338 -0.090611331 4291583280
-0.29125416 0.023032749 -0.090795048 4291780145
-0.29069981 0.024670005 -0.089739524 4292172849
-0.29074955 0.026487734 -0.089923166 4292500527
-0.29049858 0.028210819 -0.089489773 4292763439
-0.29024845 0.029931029 -0.089057922 4292960047
-0.28999922 0.031648319 -0.088627726 4292958764
-0.28945357 0.033258162 -0.08758875 4293023018
-0.28920686 0.034967199 -0.087163441 4293023017
-0.28837278 0.036455166 -0.08553113 4292762412
-0.28783759 0.038042463 -0.084512413 4292698674
-0.2873058 0.03962243 -0.083500318 4292763441
-0.28648987 0.041080114 -0.081903644 4293222705
-0.28625238 0.042760529 -0.08149571 4293680946
-0.28658834 0.044678338 -0.082267173 4293812788
-0.28663769 0.046481308 -0.082449332 4293551158
-0.28697494 0.048413049 -0.083223976 4293419311
-0.28702453 0.050224002 -0.083406925 4292960307
-0.28736302 0.052169789 -0.084184825 4293156660
-0.28770271 0.054124266 -0.084965438 4293485877
-0.28804347 0.056087457 -0.085748695 4293355318
-0.28809357 0.057917338 -0.085933559 4293355319
-0.2878527 0.059605338 -0.085519187 4293290295
-0.28848597 0.061732817 -0.086905859 4293159225
-0.28882936 0.063724689 -0.087695725 4292962875
-0.2894688 0.065880515 -0.089096338 4293028669
-0.29011238 0.068052605 -0.090506062 4293291584
-0.29136065 0.070568629 -0.093163542 4293292097
-0.29262495 0.073119558 -0.095855325 4292963903
-0.29359695 0.075531758 -0.097945131 4292766780
-0.295203 0.07832893 -0.10134441 4292635708
-0.29588443 0.08061894 -0.10283662 4292308542
-0.29720765 0.083305299 -0.10565453 4291980865
-0.2985484 0.086029887 -0.10850986 4291719749
-0.30427 0.09147124 -0.12041514 4291655242
-0.3053599 0.094138563 -0.12275682 4291262039
-0.31458771 -0.020142209 -0.14077169 4290998594
-0.31348521 -0.018219681 -0.13859135 4290997568
-0.31239474 -0.016315198 -0.13643488 4290930489
-0.31206933 -0.014362583 -0.13585544 4290995000
-0.31024894 -0.012559141 -0.13219196 4291126072
-0.30846074 -0.010784817 -0.1285934 4291322676
-0.30778572 -0.0089137461 -0.12729053 4291519797
-0.30639794 -0.0071428767 -0.12451593 4291584821
-0.30502948 -0.0053939056 -0.12178017 4291780662
-0.30333269 -0.0037164115 -0.11836527 4292108082
-0.29831305 -0.0025795237 -0.10808604 4292109106
-0.29672873 -0.00097609469 -0.10489925 4292304689
-0.29517061 0.00060344348 -0.10176523 4292566066
-0.29395244 0.0022168725 -0.099332459 4292893232
-0.29306149 0.0038714893 -0.09757524 4292697905
-0.29217932 0.00551251 -0.095835365 4292173361
-0.29191977 0.0072694439 -0.095382318 4292042803
-0.29104894 0.0088885333 -0.093664818 4292304433
-0.29048932 0.010564052 -0.092590414 4292697391
-0.29023516 0.012303578 -0.092147715 4292829234
-0.2902838 0.014115124 -0.092331573 4292762929
-0.29003051 0.01585125 -0.091890514 4292698417
-0.29007924 0.017665008 -0.092074603 4292435246
-0.29012799 0.019481312 -0.09225896 4291975725
-0.28957531 0.021127567 -0.091197476 4291845168
-0.28962407 0.022943195 -0.091381758 4292041776
-0.28907487 0.024578266 -0.090326965 4292303406
-0.28912359 0.02639324 -0.090511195 4292369710
-0.28887466 0.028113896 -0.090078324 4292436016
-0.28862658 0.029831639 -0.089647129 4292501041
-0.28808427 0.031444822 -0.088605523 4292434221
-0.2875455 0.033050384 -0.087570772 4292695597
-0.28730166 0.034754504 -0.087147675 4292892464
-0.28647822 0.036238942 -0.085521422 4292761645
-0.28594968 0.037822124 -0.084506772 4292631597
-0.28513908 0.039285772 -0.082906008 4292827951
-0.28490269 0.040966589 -0.08249712 4293089837
-0.28438416 0.042528018 -0.08150202 4293614896
-0.28471527 0.044439681 -0.082271926 4293812785
-0.2850475 0.046359826 -0.083044529 4293746738
-0.2850959 0.048162721 -0.083227523 4293485616
-0.28542939 0.050096788 -0.084003322 4293419572
-0.28576398 0.052039493 -0.084781766 4293419317
-0.28609964 0.053990848 -0.085562944 4293354548
-0.28643647 0.055950921 -0.086346835 4293288755
-0.28648555 0.057778094 -0.086532295 4293223990
-0.28682363 0.059752405 -0.087319404 4293093687
-0.28687289 0.061587695 -0.087505698 4293093430
-0.28721228 0.063576333 -0.088296168 4292896823
-0.28755277 0.065573893 -0.089089364 4292831547
-0.28818735 0.067738347 -0.090495519 4293028669
-0.28912178 0.070081577 -0.092527136 4293094974
-0.29066542 0.072785415 -0.09582933 4292964159
-0.29071608 0.074672028 -0.096020825 4292832829
-0.29289925 0.077795379 -0.10065881 4292700988
-0.29325929 0.079890475 -0.10149674 4292439358
-0.29455581 0.082554758 -0.10428848 4291980352
-0.29618743 0.08545021 -0.10778061 4291587907
-0.30181137 0.090847574 -0.1196057 4291327563
-0.30288222 0.093498342 -0.12193231 4290802006
-0.3138721 -0.020100608 -0.14373183 4290932546
-0.31276846 -0.01817116 -0.14152837 4291063616
-0.31129819 -0.016289636 -0.13856037 4290930489
-0.31059715 -0.014366523 -0.13719364 4290929718
-0.30878887 -0.012562892 -0.13351914 4290995255
-0.30701256 -0.010788382 -0.1299098 4291190837
-0.30598232 -0.0089590074 -0.1278542 4291454005
-0.30460855 -0.0071907649 -0.12508143 4291650103
-0.30290553 -0.0054915585 -0.12162088 4291715123
-0.30089045 -0.0038683731 -0.11750796 4291846964
-0.29628065 -0.0026830279 -0.10797966 4291846706
-0.29503781 -0.0010313691 -0.10547357 4292173357
-0.29349524 0.0005461598 -0.10234094 4292566577
-0.29228905 0.0021574928 -0.099909209 4292893999
-0.29140678 0.0038098167 -0.098152883 4292435505
-0.2908394 0.0055106366 -0.09705355 4292041521
-0.29027572 0.0072029615 -0.095961519 4291975471
-0.2897158 0.0088869222 -0.094876848 4292107309
-0.28915954 0.010562606 -0.09379942 4292368428
-0.28890657 0.01230225 -0.093355648 4292500782
-0.28895429 0.014113959 -0.093540385 4292567087
-0.28870219 0.015850203 -0.093098246 4292698414
-0.28874996 0.017664101 -0.093283214 4292304430
-0.2887978 0.019480566 -0.093468435 4291779116
-0.28824842 0.021126965 -0.092403956 4291844397
-0.28829625 0.022942724 -0.092589103 4292107311
-0.28775036 0.024577966 -0.091531329 4292370223
-0.28750259 0.026299069 -0.091097459 4292501040
-0.2872557 0.028017286 -0.090665229 4292501041
-0.28671673 0.029633759 -0.089621 4292304688
-0.28618124 0.031242611 -0.088583663 4292303149
-0.28564918 0.032843884 -0.087553017 4292432941
-0.2854082 0.034543153 -0.087132193 4292302127
-0.28459525 0.036024075 -0.08551196 4292238127
-0.28350756 0.037384674 -0.083314702 4292434478
-0.28299227 0.038952265 -0.082317419 4292630573
-0.28303936 0.04073948 -0.082499668 4292564269
-0.28252724 0.04229695 -0.081508435 4293285932
-0.28285354 0.044202477 -0.082276873 4293877809
-0.28318095 0.046116468 -0.083047956 4293877553
-0.28322831 0.047913924 -0.083231233 4293550898
-0.28355688 0.04984175 -0.084005453 4293616950
-0.28388661 0.051778167 -0.084782399 4293485620
-0.2845014 0.053857878 -0.086158797 4293354291
-0.28483427 0.05581481 -0.086943246 4293354803
-0.28516826 0.057780497 -0.08773043 4293158709
-0.28521645 0.059610453 -0.087917037 4293093173
-0.28555164 0.061590388 -0.088707455 4293092917
-0.28588802 0.063579194 -0.089500703 4292961590
-0.2862255 0.065576896 -0.090296671 4292699704
-0.28656411 0.067583539 -0.091095373 4292699962
-0.28719568 0.069760583 -0.092511281 4292831547
-0.28812596 0.072120003 -0.094556868 4292898367
-0.28906524 0.074504673 -0.096622303 4292767551
-0.29061747 0.077266976 -0.099980034 4292570175
-0.29097113 0.079351246 -0.10081375 4292242751
-0.29224557 0.081999309 -0.10358842 4291914815
-0.29353669 0.08468464 -0.10639963 4291456580
-0.29937726 0.090230167 -0.1188046 4291197005
-0.30042931 0.09286458 -0.12111638 4289950035
-0.30183107 0.095746465 -0.12416682 4290282847
-0.31276405 -0.020081921 -0.1459001 4290736450
-0.31204623 -0.018122317 -0.14448698 4290800959
-0.3101975 -0.01626401 -0.14069378 4290929977
-0.30949813 -0.014337371 -0.13931783 4290929462
-0.30732855 -0.012566642 -0.13484654 4290995255
-0.30520496 -0.010830652 -0.1304701 4291125815
-0.30383074 -0.0090456689 -0.12767003 4291454006
-0.30247572 -0.0072828201 -0.12490912 4291584312
-0.30045363 -0.0056352541 -0.12074161 4291715638
-0.29880843 -0.0039697462 -0.11736652 4291911477
-0.29653239 -0.0024323426 -0.11266045 4292043571
-0.29335225 -0.0010864326 -0.10604624 4291911472
-0.29213807 0.00054383639 -0.10357473 4292239151
-0.29093984 0.0021552984 -0.1011358 4292501037
-0.29006323 0.0038077952 -0.099374354 4292171309
-0.28949925 0.0055087348 -0.098271914 4291844913
-0.288939 0.0072012316 -0.097176805 4291975725
-0.28868371 0.0089525785 -0.096725114 4292106284
-0.28812894 0.010630864 -0.095640808 4292107053
-0.28787631 0.012373351 -0.095194273 4292173359
-0.28762457 0.014112772 -0.094749369 4292303919
-0.28737369 0.015849181 -0.094306156 4292435759
-0.28742051 0.017663216 -0.094491996 4292173101
-0.28746742 0.019479821 -0.094678089 4291647534
-0.28692135 0.021126362 -0.093610607 4291778864
-0.28696823 0.022942262 -0.093796626 4292107054
-0.28642565 0.02457764 -0.092735864 4292238895
-0.28588653 0.026205171 -0.091682062 4292435249
-0.28535092 0.027824977 -0.090635218 4292500273
-0.28453067 0.029339207 -0.088985488 4292369712
-0.28428996 0.031041659 -0.088562049 4292303405
-0.28347996 0.032536387 -0.08693289 4292236845
-0.28324258 0.034228299 -0.086515866 4292039981
-0.28244263 0.035703916 -0.084906921 4291843886
-0.28137234 0.037060346 -0.082724445 4291909934
-0.28114128 0.038731933 -0.082319804 4291844396
-0.28091106 0.040400933 -0.081916682 4291974701
-0.28068155 0.042067304 -0.081515044 4293090608
-0.28072757 0.043848738 -0.081697524 4293615408
-0.28077361 0.045632716 -0.081880271 4293484595
-0.28109545 0.047542766 -0.082648292 4293418287
-0.28141832 0.049461234 -0.083418876 4293419827
-0.28174227 0.051388249 -0.084192172 4293420339
-0.2820673 0.053323787 -0.084968142 4293485366
-0.28295481 0.055541642 -0.086939074 4293223990
-0.28328386 0.057500891 -0.087724634 4293093172
-0.28361404 0.05946891 -0.088512927 4293027380
-0.28394529 0.061445717 -0.089303993 4293027126
-0.28456354 0.063582063 -0.090705425 4293026614
-0.28461114 0.065425791 -0.090894289 4292764471
-0.28523356 0.067586675 -0.092305668 4292568377
-0.28557023 0.069602475 -0.09311001 4292634426
-0.28649038 0.071957551 -0.095156103 4292767036
-0.28741938 0.074337825 -0.097221985 4292636222
-0.2886557 0.076918803 -0.099943019 4292373825
-0.28930444 0.079175353 -0.1014143 4291914561
-0.29026076 0.081633367 -0.10354131 4291717181
-0.29122645 0.084118068 -0.10568929 4291063369
-0.29664215 0.089415036 -0.11731906 4291001684
-0.29800093 0.092237189 -0.12030884 4290869070
-0.2993781 0.095100418 -0.12333934 4290675541
-0.31203732 -0.020039869 -0.14889586 4290802241
-0.31093565 -0.018099889 -0.14665389 4290932028
-0.30909258 -0.016238291 -0.14283513 4290930745
-0.30802286 -0.014341285 -0.14065883 4290995767
-0.30586806 -0.012570357 -0.13617414 4290995510
-0.3034035 -0.010872765 -0.13102868 4291256372
-0.30204329 -0.009090459 -0.12823044 4291518516
-0.30070204 -0.0073302123 -0.12547135 4291518773
-0.29836315 -0.0057312641 -0.12058765 4291714866
-0.29640952 -0.0041191322 -0.11652198 4291780145
-0.29481959 -0.0024860261 -0.11322895 4291779890
-0.29167211 -0.0011413373 -0.1066172 4291780657
-0.29047 0.00048674745 -0.10414685 4291976495
-0.28959039 0.0021531277 -0.10236258 4292039723
-0.28871945 0.0038057531 -0.10059602 4291976240
-0.28815892 0.0055068349 -0.099490471 4291910961
-0.288205 0.0073291361 -0.09967801 4291844656
-0.28764805 0.0090184212 -0.098579489 4291975213
-0.2870948 0.010699365 -0.097488374 4291844141
-0.28654519 0.012372025 -0.09640453 4291845423
-0.28659111 0.014186929 -0.096591301 4291977008
-0.28604493 0.015848165 -0.095514275 4292173618
-0.28609082 0.017662333 -0.095700979 4292107569
-0.28613681 0.019479077 -0.095887929 4291779119
-0.28559408 0.021125732 -0.094817445 4291779375
-0.28534696 0.022852991 -0.094378151 4292172590
-0.28480944 0.024486192 -0.093318097 4292303919
-0.28427538 0.026111608 -0.092265025 4292501042
-0.28345796 0.027633911 -0.090605587 4292697138
-0.28264827 0.029144427 -0.088962041 4292566578
-0.28212783 0.030742491 -0.087936513 4292436020
-0.28161073 0.032333136 -0.086917706 4292238130
-0.28137606 0.034020219 -0.08650282 4291778094
-0.27975908 0.035176501 -0.083128974 4291318573
-0.27952993 0.036846057 -0.082724951 4290924843
-0.27930152 0.038512994 -0.082322381 4290859049
-0.27907386 0.040177327 -0.081921317 4291057197
-0.27857602 0.041724861 -0.080941193 4292436275
-0.2786209 0.04349827 -0.08112368 4293090095
-0.27893695 0.045393832 -0.081887588 4292961079
-0.27898201 0.047175035 -0.082070895 4292696110
-0.27929923 0.04908425 -0.082837909 4292697389
-0.27961752 0.051001925 -0.083607599 4293092146
-0.2802116 0.053060237 -0.084969357 4293223479
-0.28080943 0.05513392 -0.086339869 4293092920
-0.28141102 0.057223078 -0.08771909 4292896309
-0.28201643 0.059327833 -0.089107186 4292896309
-0.28262571 0.061448399 -0.090504259 4292896311
-0.28295505 0.063434161 -0.091300756 4292961591
-0.2832855 0.065428793 -0.092100091 4292830262
-0.28361705 0.067432359 -0.092902191 4292633913
-0.28423643 0.069605783 -0.094323285 4292633913
-0.28485978 0.07179565 -0.095753618 4292569144
-0.28577855 0.074171506 -0.097819991 4292438588
-0.28700146 0.076747462 -0.10054138 4291914819
-0.28734568 0.078821205 -0.10137379 4291456322
-0.28858864 0.081453353 -0.10414053 4291193667
-0.28954363 0.083933309 -0.10628884 4290475599
-0.29522341 0.08941967 -0.11860973 4290609763
-0.29624552 0.092032671 -0.12090693 4291001170
-0.29760754 0.094889857 -0.1239373 4290938197
-0.31091931 -0.020020964 -0.15108603 4290408253
-0.30944064 -0.018104205 -0.1480128 4290931770
-0.30761009 -0.016242383 -0.14418265 4290799672
-0.30691671 -0.014312031 -0.14279352 4290798390
-0.30476889 -0.012538103 -0.13827887 4290863412
-0.30195975 -0.010876313 -0.13234106 4291059508
-0.30026183 -0.0091350935 -0.12878914 4291256117
-0.29859337 -0.0074213319 -0.12529901 4291321652
-0.29661959 -0.0057805162 -0.12115073 4291517745
-0.2943598 -0.0042187949 -0.11638542 4291451953
-0.29311228 -0.0025395551 -0.11379582 4291517743
-0.29030874 -0.001143845 -0.10785663 4291779375
-0.28911465 0.00048439804 -0.105379 4291647279
-0.28854626 0.002208123 -0.10424725 4291648561
-0.2879816 0.0039231167 -0.1031231 4291779378
-0.28742072 0.0056295218 -0.10200661 4291779379
-0.28686354 0.0073273764 -0.10089761 4291713329
-0.2866089 0.0090844734 -0.10044011 4291713841
-0.28605714 0.010768062 -0.099342093 4291647793
-0.28550902 0.012443359 -0.09825135 4291517487
-0.28525883 0.014185742 -0.097802609 4291714864
-0.28500944 0.015925104 -0.097355522 4291845683
-0.28476095 0.01766143 -0.096910141 4291910962
-0.28480598 0.019478306 -0.097097963 4291778864
-0.28426659 0.021125132 -0.096024476 4291844911
-0.28402063 0.022852533 -0.095584147 4292107566
-0.2834864 0.024485869 -0.094521113 4292238638
-0.28266913 0.026018308 -0.092846312 4292304176
-0.28185964 0.027538795 -0.091187589 4292565809
-0.28077742 0.028950853 -0.088938877 4292631089
-0.28026357 0.030544676 -0.087917514 4292501044
-0.27975297 0.032131128 -0.086902782 4292369458
-0.2784245 0.033402629 -0.084119171 4291778094
-0.27765477 0.034864213 -0.08254271 4290858796
-0.27742898 0.036526702 -0.082142286 4290005031
-0.27720392 0.038186595 -0.081743315 4289939491
-0.27697963 0.039843924 -0.081345834 4290204459
-0.27675611 0.041498724 -0.080949843 4291518258
-0.27653331 0.043150984 -0.08055529 4292499762
-0.27684382 0.045037497 -0.081315681 4292698422
-0.27688777 0.046810664 -0.081498981 4291778865
-0.27746788 0.048835427 -0.082844175 4291581227
-0.27832264 0.05100384 -0.084785298 4292107567
-0.2789118 0.053062316 -0.086151548 4292501555
-0.27978003 0.055272371 -0.088123612 4292764982
-0.28010127 0.057225466 -0.088910364 4292765238
-0.28070167 0.059330385 -0.090303026 4292764981
-0.28130588 0.0614511 -0.091704734 4292830516
-0.28163221 0.063437015 -0.09250398 4292764468
-0.28195965 0.065431789 -0.093306094 4292633398
-0.28257179 0.067593016 -0.094726823 4292503098
-0.28290239 0.069609106 -0.095536746 4292438074
-0.28352058 0.071799122 -0.096971817 4292372281
-0.28414276 0.074005745 -0.098416299 4292241464
-0.28564534 0.076751262 -0.101775 4291652414
-0.28628141 0.079003975 -0.10325161 4291193411
-0.28781843 0.081826478 -0.10668798 4290996805
-0.28877181 0.084316477 -0.1088566 4290281043
-0.29444635 0.089832887 -0.12129693 4290546794
-0.2954669 0.0924569 -0.12361636 4291067736
-0.29649791 0.095110476 -0.12595962 4291069528
-0.31051764 -0.021987988 -0.15474334 4287388482
-0.30941409 -0.020025468 -0.1524542 4290013500
-0.30794537 -0.018108483 -0.14937192 4290800700
-0.30612734 -0.016246499 -0.14553042 4290668857
-0.30507159 -0.014349166 -0.14334145 4290732854
-0.30294633 -0.01257785 -0.13882996 4290863411
-0.3001667 -0.010918299 -0.13289571 4290928435
-0.29882947 -0.0091384891 -0.13009119 4291059507
-0.29683512 -0.0074682357 -0.12585808 4291190580
-0.29488176 -0.0058296197 -0.12171205 4291255090
-0.29264542 -0.0042698118 -0.1169491 4291321395
-0.29109305 -0.0026433929 -0.11367083 4291517999
-0.28894514 -0.0011463218 -0.10909624 4291582511
-0.28775913 0.00048207954 -0.10661133 4291450414
-0.28719419 0.0022059239 -0.10547642 4291387955
-0.28663301 0.0039210669 -0.10434913 4291518002
-0.28667745 0.0057529891 -0.10453939 4291517235
-0.28611997 0.007456108 -0.10341939 4291582255
-0.28556612 0.0091507733 -0.10230697 4291648559
-0.28501591 0.010836981 -0.10120194 4291648560
-0.28446934 0.0125149 -0.10010437 4291516975
-0.28421944 0.014260132 -0.099652737 4291582767
-0.28367817 0.015924083 -0.098565951 4291582256
-0.28343087 0.017660551 -0.098119482 4291648048
-0.28289485 0.019310756 -0.097043343 4291516974
-0.28265011 0.021038629 -0.09660197 4291648560
-0.28240624 0.022763554 -0.096162349 4292042032
-0.2815918 0.024304209 -0.094477676 4292173102
-0.28078514 0.025832782 -0.09280923 4292173103
-0.27998614 0.027349526 -0.091156736 4292303919
-0.27891806 0.028758479 -0.088916086 4292500016
-0.27841067 0.030348096 -0.087898836 4292566322
-0.27790648 0.031930365 -0.086888112 4292566578
-0.27659541 0.033199638 -0.084114037 4292040496
-0.27583551 0.034657832 -0.082543291 4290727724
-0.27561229 0.03631568 -0.082144901 4289479973
-0.27538982 0.037970968 -0.081748016 4289218337
-0.27516806 0.03962373 -0.081352592 4289547815
-0.27468404 0.041161478 -0.080383323 4290665007
-0.27446449 0.04280686 -0.079992242 4292041524
-0.27476957 0.04468438 -0.080749154 4292566323
-0.27507558 0.046570141 -0.081508577 4291518261
-0.27564749 0.048588157 -0.082850598 4290138671
-0.27702755 0.051005777 -0.085963175 4290400557
-0.27761179 0.053064398 -0.087333925 4291253807
-0.27847302 0.055274621 -0.089312375 4292106801
-0.27934241 0.057508092 -0.09130957 4292436019
-0.27994135 0.059620634 -0.092715017 4292567348
-0.28026453 0.061601195 -0.093516462 4292633139
-0.28058884 0.063590609 -0.094320744 4292502579
-0.28091419 0.065588914 -0.095127836 4292305205
-0.28124061 0.067596175 -0.095937692 4292174392
-0.28156817 0.069612414 -0.096750401 4292109368
-0.2818968 0.071637735 -0.097565986 4292109625
-0.28279814 0.074009389 -0.099639446 4291913014
-0.2839981 0.076580457 -0.10236987 4291520827
-0.28491977 0.079007953 -0.10449029 4291193152
-0.28734356 0.082388617 -0.10991257 4290670147
-0.28799468 0.084702127 -0.11144125 4289363533
-0.2933425 0.090042837 -0.12329612 4289890146
